ply
        format ascii 1.0
        element vertex 18943
        property float x
        property float y
        property float z
        property uchar blue
        property uchar green
        property uchar red
        end_header
-665.556765 21.444830 495.262241 135 103 85
-648.713064 128.162730 491.698360 117 85 73
908.175468 340.693831 2122.288704 94 62 56
908.175468 340.693831 2122.288704 94 62 56
-666.544867 -12.889697 506.145191 83 55 48
-679.581928 -349.780226 560.322380 136 102 88
-663.007498 90.496266 492.903328 132 98 84
-664.722729 22.813150 504.871511 137 104 87
-677.922344 -336.525893 562.128735 144 110 95
-677.922344 -336.525893 562.128735 144 110 95
-738.466454 -510.741520 539.700413 47 30 22
-669.520187 -56.486553 518.463039 84 76 79
-669.520187 -56.486553 518.463039 84 76 79
-680.007076 -343.872976 566.742420 83 56 52
-679.012966 -332.309341 568.065596 78 64 67
-736.581564 -486.952209 543.841267 89 61 52
-680.850410 -328.716540 566.099977 95 68 59
-679.916906 -360.666704 573.544264 60 57 70
-680.821133 -365.322185 579.066896 136 101 88
-670.188189 -160.322630 550.413990 106 75 80
-665.834904 55.530536 513.005257 92 61 57
-666.792536 21.688673 519.808817 96 65 60
-661.409760 110.676682 508.590555 133 100 85
-676.902819 -322.199059 577.795267 95 68 63
-666.130638 8.573300 525.873899 140 107 89
-871.382523 -655.412006 467.350674 255 223 207
-731.444883 -489.447165 562.820959 97 69 54
-731.444883 -489.447165 562.820959 97 69 54
-660.067034 -28.430367 541.786814 146 110 94
-661.327791 74.863899 523.240757 97 65 55
-650.700045 139.594030 521.191216 113 80 71
-665.586948 -62.856144 546.586180 94 65 59
-1356.352615 99.774492 -118.623078 118 89 81
-647.299051 170.906496 522.416115 70 60 70
-664.878082 -51.965219 549.458981 63 63 73
-664.878082 -51.965219 549.458981 63 63 73
-670.333576 -364.329457 606.461859 123 89 75
-678.041172 -346.042991 596.145630 57 58 69
-662.277746 -6.338263 546.067095 75 49 42
-659.650612 110.162401 525.987244 91 60 53
-647.571945 159.333253 528.517580 87 80 95
-662.983656 41.966224 537.183714 96 65 57
-665.623093 -20.159633 547.194290 144 106 92
-680.801296 -356.966901 600.430012 61 57 68
-663.580322 -56.830531 558.219099 134 99 86
-654.323864 -16.343950 559.837437 144 106 92
-674.998665 -353.767323 606.844473 61 57 68
-654.492998 89.610213 539.493847 113 83 72
-662.100172 -36.045489 557.202339 149 114 96
-657.321739 64.051265 542.559004 129 97 83
-657.617188 73.674852 540.879059 108 79 71
-654.320574 81.363386 542.561054 127 94 81
-676.640272 -372.691250 611.131001 118 84 72
-657.138205 -7.335772 558.893013 97 70 65
-658.023262 78.203452 547.402000 35 24 16
-658.023262 78.203452 547.402000 35 24 16
-654.884911 153.826833 535.550737 18 12 9
-660.925865 -6.093679 562.363338 38 25 19
-660.925865 -6.093679 562.363338 38 25 19
-662.304068 -27.089438 566.902256 55 38 27
-662.304068 -27.089438 566.902256 55 38 27
-657.069016 162.316859 538.792706 92 85 96
-656.842375 175.229001 536.647320 69 59 71
-657.806301 133.905315 545.344353 125 94 78
-655.455637 -62.917757 586.574268 107 78 64
-663.965654 57.385540 556.537628 119 86 72
-665.420055 -43.944544 575.492048 131 98 83
-660.711193 35.346025 566.625452 124 90 79
-657.719374 150.372410 547.087097 106 75 66
-663.479090 4.250927 571.590185 118 86 74
-669.776249 -165.118098 599.528933 137 104 89
-676.826191 -352.054429 630.057049 122 91 77
-675.341940 -327.811790 627.207327 136 102 88
-663.555622 53.372127 563.058233 126 92 78
-657.666922 115.142810 556.266069 94 60 52
-661.881256 13.092397 572.982216 96 64 55
-654.593134 135.769391 557.408047 135 103 84
-657.589149 101.650894 561.846495 136 102 86
-659.985447 34.171093 573.279142 141 106 90
-667.147303 -45.672861 582.671976 83 71 71
-656.023788 155.999100 553.080177 115 85 77
-661.748981 2.292577 578.652906 129 97 82
-660.908127 44.289356 571.322489 129 96 83
-663.991690 30.805162 573.379803 97 64 53
-505.003309 92.730975 723.581839 97 64 53
-660.541296 -0.534256 583.146334 82 54 45
-660.541296 -0.534256 583.146334 82 54 45
-674.984026 -328.999686 636.374807 70 54 56
-675.497246 -322.465110 635.011005 71 57 62
-677.615261 -351.148558 639.482498 55 56 66
-662.006855 81.857777 567.788744 94 58 52
-658.657694 116.247094 564.202023 91 59 47
-661.630011 48.096818 575.320435 94 62 56
-657.929754 136.468410 562.369967 136 101 83
-673.919964 -360.400963 650.005865 127 90 78
-676.719761 -355.439329 646.667147 137 103 90
-672.638798 -22.796881 585.345840 151 112 96
-674.707842 -348.611093 648.518705 57 56 65
-656.179857 135.034859 572.428179 96 61 49
-665.698433 -85.961467 610.142994 93 66 65
-670.488405 -203.693604 629.762077 95 68 69
-656.254911 88.122886 584.466362 139 104 88
-667.513990 -124.413097 617.291403 102 72 68
-669.195843 -269.081736 644.655371 98 70 64
-667.310381 -145.275962 621.801329 92 65 58
-671.712828 -251.205850 639.005041 98 69 64
-657.244778 99.083310 582.652330 122 91 81
-663.590145 36.517516 592.146873 146 108 90
-658.626080 17.738040 601.138783 94 62 56
-658.626080 17.738040 601.138783 94 62 56
-659.725189 56.827229 592.458534 107 70 61
-665.159464 -121.995723 624.216843 96 68 66
-658.028889 135.963953 579.061508 86 58 51
-659.488773 101.946127 584.888220 84 54 48
-662.928820 -91.819137 621.549177 100 72 72
-673.900986 -352.094674 663.896513 136 101 87
-671.997690 -279.416633 652.168417 96 66 63
-671.768379 -339.967656 664.507484 70 71 79
-661.913919 20.794986 602.539873 139 104 87
-672.873116 -316.764617 663.232803 78 73 80
-663.192749 -32.367831 616.549158 112 85 83
-667.242479 -347.405291 676.395464 140 105 89
-666.026020 -65.915197 621.397305 148 112 96
-669.726706 -364.803910 679.495811 121 88 73
-672.296333 -344.393039 673.695278 64 57 65
-672.296333 -344.393039 673.695278 64 57 65
-663.972139 -78.679127 628.541374 146 110 94
-667.590046 -131.531107 636.256981 148 113 96
-653.551340 141.923583 595.129776 137 103 90
-1497.761345 111.004925 -122.076774 121 90 82
-655.740881 118.822789 598.658323 131 98 84
-659.573221 8.699381 617.841101 142 103 90
-668.597460 -349.380755 686.673164 129 94 80
-660.219336 54.170209 613.400650 98 64 55
-661.411762 20.036821 619.369364 99 64 53
-658.838129 41.270235 619.968891 145 108 91
-659.205008 -3.287399 633.056307 142 106 91
-657.588911 22.369097 631.125641 101 66 61
-657.853270 39.551792 627.757454 102 65 58
-654.126692 107.710290 618.242645 86 55 49
-653.355408 124.709547 615.496492 92 59 50
-653.259850 141.514504 612.444830 90 58 49
-658.648062 4.560116 635.726833 114 84 72
-655.128813 90.675944 621.375608 96 62 52
-655.651379 74.203157 624.459934 101 67 55
-665.557480 -186.707079 669.560003 162 123 105
-652.813053 6.221028 641.277647 114 84 72
-659.085989 0.883033 638.905954 92 58 51
-653.924561 129.951727 618.061686 133 98 91
-658.215904 8.291405 639.646292 89 59 48
-669.861698 -231.567311 679.077625 161 122 104
-654.594135 140.683997 616.675377 124 92 83
-666.119146 -172.103202 673.354101 102 77 83
-660.178804 22.981615 640.397167 81 63 72
-660.178804 22.981615 640.397167 81 63 72
-669.763231 -222.498727 684.303427 169 127 109
-216.039228 105.125022 997.191525 144 109 95
-657.228613 -55.035216 662.910891 78 63 68
-662.903166 66.677189 635.299206 80 63 73
-665.308237 -186.056256 684.948397 151 115 98
-672.562361 -259.686112 694.249058 85 61 68
-668.864679 -164.293194 678.650236 39 29 40
-658.230686 130.878782 627.947617 67 59 79
-662.718010 31.054366 645.834351 37 27 33
-662.718010 31.054366 645.834351 37 27 33
-652.317905 146.520030 631.201553 122 86 70
-659.820366 -39.769197 664.361191 117 82 69
-676.393414 -106.062543 663.542843 154 119 109
-666.100407 -184.114540 690.564203 105 72 68
-664.052582 83.579129 637.748671 143 110 96
-665.668392 47.633535 643.876743 135 102 89
-666.435862 -225.520492 700.515890 151 115 99
-665.413618 -189.208078 694.228458 104 75 73
-665.413618 -189.208078 694.228458 104 75 73
-666.531086 -201.543975 696.241140 97 62 53
-678.191900 -321.201611 711.874580 81 50 38
-657.927465 -46.072599 672.160625 139 104 87
-677.297401 -286.382699 705.823851 83 48 39
-671.937084 -134.246790 679.082346 63 35 32
-670.267582 -75.922042 668.627214 52 34 28
-652.935553 151.836586 636.577845 93 63 53
-669.394875 -67.667794 668.101072 62 38 27
-666.211796 -209.916496 700.393963 168 127 108
-665.542459 -198.369002 699.318457 108 71 60
-665.048027 72.634107 644.407368 51 32 29
-665.847874 61.214972 646.269751 64 39 32
-666.812229 44.726345 648.867846 54 35 29
-655.181456 172.903121 632.156420 75 54 53
-663.461208 127.514350 634.766865 67 40 33
-666.815281 -210.038137 701.364470 154 113 96
-666.815281 -210.038137 701.364470 154 113 96
-675.878000 -337.854505 722.430611 120 84 70
-666.160011 -198.066938 702.077532 129 94 80
-671.223688 -145.095623 687.535191 135 103 87
-664.949799 -116.095471 686.858034 104 75 64
-666.119957 -228.968859 709.412718 96 65 62
-665.008354 -85.001558 680.700588 105 79 63
-665.008354 -85.001558 680.700588 105 79 63
-652.640629 145.230055 643.670893 121 90 80
-669.775963 -61.844575 672.588587 165 127 110
-663.826418 -193.924224 704.936075 90 63 63
-657.058907 12.569271 668.736029 106 69 56
-663.862848 67.436641 652.023983 150 114 95
-663.862848 67.436641 652.023983 150 114 95
-664.966822 -172.086382 701.779079 103 70 63
-663.467884 -187.474012 706.990194 145 107 92
-663.467884 -187.474012 706.990194 145 107 92
-677.870464 -327.959800 725.536633 112 67 52
-660.354185 -29.261434 679.951239 101 80 80
-657.273245 16.884640 673.706245 151 114 97
-657.273245 16.884640 673.706245 151 114 97
-663.984776 -174.275243 707.673264 159 122 103
-663.984776 -174.275243 707.673264 159 122 103
-664.467382 62.695312 658.548975 59 37 30
-662.404919 122.091854 648.200893 64 39 33
-662.304258 128.990614 646.869612 63 42 30
-662.304258 128.990614 646.869612 63 42 30
-652.163982 170.564747 646.893358 57 37 30
-660.147810 -45.277381 685.416746 146 107 93
-666.878319 -189.399290 709.971046 113 76 66
-665.993738 -199.483383 715.815735 113 71 62
-670.580482 -126.377344 697.378826 169 125 107
-656.499529 0.508531 682.792139 150 113 94
-656.468391 14.938071 680.043745 125 85 65
-668.411446 -60.694873 686.377621 168 125 110
-664.803553 -188.583517 716.289997 139 107 94
-664.036131 51.997685 668.075657 151 115 97
-663.162231 69.171822 665.249825 162 121 105
-664.450502 -180.585229 716.746521 114 74 62
-664.024258 -193.550026 720.087194 139 106 90
-663.621998 -173.067486 716.624832 159 119 100
-658.480835 -189.085352 724.021292 85 59 60
-667.027712 -184.787023 716.707611 126 91 74
-676.877022 -325.867486 739.260244 114 68 54
-657.511520 7.003840 686.355209 142 105 87
-656.811428 135.944986 660.895586 151 110 97
-670.365810 -353.203273 751.471233 131 92 78
-671.133137 -146.369708 708.055925 51 26 24
-657.276487 24.693838 683.940506 149 113 95
-659.543228 -218.683434 732.652807 153 114 98
-661.102819 127.664602 659.662008 87 37 31
-668.212986 -63.939059 693.905544 78 44 35
-657.903814 -0.003983 689.309454 90 57 44
-664.219809 -183.922827 722.635221 97 69 65
-662.406158 115.263367 663.481760 61 36 31
-660.875702 124.785519 663.423967 177 119 101
-658.588457 -34.147128 698.582745 130 93 78
-674.008703 -334.038854 748.558760 120 87 74
-674.484348 -269.895887 736.386824 155 113 95
-663.944101 -171.104634 724.342585 101 72 70
-663.944101 -171.104634 724.342585 101 72 70
-661.509085 -149.942827 722.711229 64 43 38
-668.737841 -123.262823 711.488104 163 121 102
-647.950506 152.690530 671.330023 132 95 77
-659.442329 -78.929400 711.231136 120 90 72
-657.654905 41.774738 688.256359 62 43 39
-657.654905 41.774738 688.256359 62 43 39
-659.603596 2.582037 696.074009 143 108 89
-659.603596 2.582037 696.074009 143 108 89
-661.407757 -156.201637 727.841997 57 41 48
-661.407757 -156.201637 727.841997 57 41 48
-666.848183 -151.245081 722.662401 56 32 30
-654.210234 140.063763 672.803020 162 123 114
-649.483967 154.915798 673.813105 132 95 82
-650.003719 175.897181 669.666719 120 88 79
-650.003719 175.897181 669.666719 120 88 79
-663.850927 -187.701428 735.288239 119 80 68
-663.850927 -187.701428 735.288239 119 80 68
-655.776548 131.301987 675.507498 62 38 34
-661.727524 -162.331486 733.755302 90 68 76
-651.256180 157.615578 675.807095 98 65 57
-657.299757 -47.289574 715.333748 70 54 61
-663.548374 -222.936392 748.133326 116 79 70
-656.866360 -30.063596 713.294792 126 90 77
-663.311291 -179.167783 740.328789 125 85 70
-655.497026 9.606423 707.775307 89 57 49
-651.991892 131.335545 688.754082 136 103 91
-653.880024 70.793205 700.648022 142 106 91
-652.781010 105.559754 694.497919 138 104 89
-651.057339 139.067435 689.407539 134 101 85
-651.057339 139.067435 689.407539 134 101 85
-655.081320 41.870388 706.753969 150 112 96
-655.832291 19.666013 711.072779 89 58 51
-727.106285 -456.995821 755.386782 100 68 55
-653.695393 109.118736 694.026327 125 89 76
-727.459526 -448.927307 753.797054 90 49 33
-727.459526 -448.927307 753.797054 90 49 33
-652.939796 103.076208 698.358536 93 57 53
-655.276060 68.656969 704.175425 100 64 54
-652.450562 120.031404 695.668268 90 57 52
-653.276110 85.945326 702.340317 95 62 54
-651.388741 137.031388 693.100214 85 54 48
-655.128336 34.921232 712.456894 94 61 55
-656.083441 9.858450 717.183208 148 111 96
-725.172091 -458.396435 761.846924 34 19 16
-654.244518 52.072942 710.042810 98 62 54
-727.165365 -453.960657 760.236645 112 76 59
-729.436588 -446.015739 757.339621 147 104 87
-729.436588 -446.015739 757.339621 147 104 87
-652.353382 38.944626 717.207098 144 108 91
-651.063013 73.069417 711.142635 139 104 88
-650.537157 107.096052 704.641485 138 103 86
-649.630690 141.086483 698.226833 135 99 83
-654.093790 50.259382 714.449835 132 96 86
-652.550554 84.431559 708.759642 134 99 87
-649.654961 152.540171 697.127056 122 91 78
-722.723627 -452.859592 769.202995 90 63 58
-655.570412 7.138139 724.568462 102 61 50
-653.932667 41.534743 719.273567 109 72 59
-665.517950 -311.246371 785.322952 83 55 49
-652.217293 121.190321 705.884647 89 56 48
-653.686333 87.288421 712.221003 90 58 51
-651.502180 155.428219 699.583626 80 52 46
-665.852165 -326.253128 791.370249 60 57 66
-652.802563 39.835024 724.203205 140 105 89
-665.412617 -297.911429 786.638308 62 53 63
-663.294935 -204.668593 769.212151 104 69 63
-667.893982 -340.248919 796.094656 133 98 84
-667.893982 -340.248919 796.094656 133 98 84
-654.955339 -5.902527 735.494757 152 115 95
-665.209770 -309.458065 793.807077 94 92 96
-665.583849 -330.451655 798.425150 138 103 89
-665.039539 -323.593736 801.616573 43 37 50
-653.987455 -8.948483 743.645763 102 66 56
-659.671259 -249.121356 790.163803 90 61 56
-646.307993 184.877324 708.407927 74 54 53
-646.307993 184.877324 708.407927 74 54 53
-654.256010 10.155333 739.583349 112 72 56
-654.970407 -23.694967 746.458244 125 97 89
-653.986120 -15.947857 745.730877 100 102 103
-651.097441 59.102941 732.679224 145 109 92
-665.195179 -310.694647 800.749207 48 38 50
-652.666903 27.732828 738.476515 134 102 87
-664.864349 -339.642787 807.197666 80 52 48
-663.940763 -302.406454 800.798416 65 66 74
-665.645170 -333.373618 806.487656 100 63 53
-664.687777 -304.316759 802.462006 46 41 53
-665.959454 -320.625257 805.431175 88 90 91
-656.618881 -8.023815 746.183968 151 113 95
-654.490232 -17.837566 750.289869 38 36 50
-651.873827 61.929971 736.008978 106 71 60
-666.205168 -349.332952 813.202095 107 74 68
-656.336260 -28.208601 752.252007 83 56 52
-666.681576 -339.598441 810.916519 132 95 81
-654.214668 38.906768 739.868832 93 61 54
-735.308981 -435.481071 780.751276 32 19 14
-662.319040 -299.790764 807.795811 77 79 84
-666.390896 -330.568218 811.641502 136 101 87
-651.423168 127.761185 725.948143 138 104 88
-659.228086 -15.148203 751.344109 98 99 100
-648.003244 162.402403 722.395325 137 104 86
-665.037012 -324.195385 815.513325 57 58 67
-661.241627 -248.287249 803.702068 87 63 66
-661.241627 -248.287249 803.702068 87 63 66
-662.698603 -192.031944 791.209698 103 72 67
-662.698603 -192.031944 791.209698 103 72 67
-658.944273 -118.271136 781.262398 95 65 60
-652.306652 58.428550 749.014187 101 67 55
-650.589466 45.025563 755.635691 145 111 93
-652.387476 56.593430 752.805948 134 102 88
-646.361160 147.369206 738.336086 131 94 81
-258.535480 124.733806 1033.355999 94 62 56
-226.856756 141.748178 1059.269714 94 62 56
-226.856756 141.748178 1059.269714 94 62 56
-648.122835 150.060296 740.491772 95 60 51
-652.444696 59.308833 756.837988 96 62 53
-652.018118 93.276364 749.959373 86 56 50
-649.595976 161.878777 738.158226 82 53 45
-652.004910 45.569906 761.550617 138 105 89
-663.751507 -343.779325 839.896202 125 89 76
-662.832451 -291.877007 829.744816 60 54 65
-663.785934 -326.012611 836.577034 147 110 92
-662.301302 -282.946968 829.662323 135 100 87
-662.952805 -307.492542 837.582970 102 97 99
-654.944897 -50.915521 790.092230 141 105 94
-649.306297 78.930390 766.645813 94 59 50
-644.366121 147.111869 756.399536 82 53 46
-651.342058 34.705117 776.543903 140 105 89
-648.877621 65.419137 771.949339 139 103 87
-515.701580 213.176394 837.087059 14 10 10
-651.750803 42.078322 775.474024 128 95 82
-652.001810 -8.451314 786.762857 114 107 104
-645.646477 167.687130 753.825665 135 98 85
-658.679914 -187.684560 821.648788 106 76 76
-658.600903 -171.932685 818.334866 107 74 69
-647.445107 145.149815 757.987881 121 91 80
-662.508392 -322.385550 848.860264 141 105 90
-648.123121 31.945008 782.815123 83 57 50
-513.526630 57.507718 874.628639 87 58 52
-662.374163 -340.727997 853.488827 128 92 78
-661.946583 -297.900057 844.576550 78 63 68
-661.946583 -297.900057 844.576550 78 63 68
-655.162907 -96.165019 805.852032 103 72 74
-652.005625 -1.003249 787.810564 165 123 106
-653.716183 -22.297736 792.243767 96 67 62
-653.498983 -36.520994 795.777798 103 72 66
-650.093794 113.985860 766.787004 85 55 45
-663.411474 -317.161822 851.476574 72 64 74
-648.503637 134.244347 765.778208 131 96 82
-401.510811 236.630535 922.107315 149 122 104
-401.510811 236.630535 922.107315 149 122 104
-646.185255 168.538570 761.042786 128 93 79
-650.084686 64.723706 787.819862 90 59 52
-644.741678 167.285109 771.845102 83 53 43
-646.936798 85.726041 788.120365 140 106 86
-524.172688 208.752942 848.902035 12 12 12
-655.055428 -74.096966 818.775177 139 103 89
-647.853231 88.712126 791.410542 97 64 53
-645.935202 156.328917 779.037809 92 57 49
-649.501753 51.696986 800.483036 135 103 84
-650.250721 65.708303 797.175407 84 56 51
-650.250721 65.708303 797.175407 84 56 51
-650.143766 86.046875 793.088770 134 100 82
-648.216581 167.996550 776.677370 74 47 44
-654.849911 -158.525062 844.367695 162 121 102
-645.657158 120.932972 789.825678 132 97 83
-645.329332 154.534400 782.966089 128 94 78
-648.921347 49.438730 803.767490 91 59 51
-648.921347 49.438730 803.767490 91 59 51
-524.155045 204.536629 857.646275 90 81 97
-233.381557 111.924124 1083.675861 114 84 72
-646.414995 84.350914 800.531197 82 54 46
-646.414995 84.350914 800.531197 82 54 46
-655.047941 -209.516692 859.136486 62 44 51
-645.684767 118.791163 794.449329 84 55 48
-643.855381 135.703003 792.200327 79 49 41
-642.327118 169.577062 786.471701 79 50 41
-648.658085 35.833481 812.865639 77 50 41
-655.252218 -156.573761 851.172161 86 54 45
-656.612206 -150.491548 849.222088 152 116 99
-647.051382 87.803578 803.563213 131 101 90
-230.386639 187.011766 1073.407841 133 98 91
-645.174408 168.406844 789.301729 124 89 78
-649.318218 30.972451 817.307949 122 89 71
-649.318218 30.972451 817.307949 122 89 71
-649.382734 50.565344 814.292526 72 53 64
-655.109262 -159.740722 857.525253 158 118 101
-645.004320 165.989745 793.619967 41 31 44
-657.414675 -338.307977 897.991467 39 27 32
-671.045494 -310.791707 884.933758 67 38 30
-669.845963 -303.361654 884.514236 77 44 34
-669.540453 -303.310323 884.825993 77 44 34
-667.813206 -286.691117 882.916927 89 51 40
-654.627466 -157.552552 864.060116 99 72 74
-231.283116 -24.665096 1127.406883 151 115 99
-654.979277 -162.675130 867.136574 98 74 73
-230.867791 187.923396 1080.865765 67 59 79
-655.261803 -174.955428 870.128632 95 59 51
-567.182398 17.789586 888.066769 124 94 80
-654.537916 -182.351208 874.281406 167 123 106
-666.652822 -306.038189 894.064903 136 96 73
-661.394024 -95.021367 851.282978 54 34 28
-661.579180 -131.707132 859.311771 41 32 27
-661.579180 -131.707132 859.311771 41 32 27
-661.579180 -131.707132 859.311771 41 32 27
-654.348612 -171.267629 873.171425 108 74 62
-666.822529 -115.984249 853.015900 60 33 27
-666.822529 -115.984249 853.015900 60 33 27
-659.918785 -78.415936 849.405670 53 34 26
-657.630777 -337.043190 908.193874 35 22 28
-656.111526 -160.181344 870.708275 147 110 93
-654.237556 -168.114948 875.187397 71 49 56
-654.307270 -170.899248 876.130104 132 99 85
-653.507090 -148.972321 872.379017 149 112 94
-661.219978 -100.865877 858.193302 171 130 112
-657.222223 -309.780455 907.689285 64 47 49
-653.258562 -173.960459 880.456638 107 69 59
-654.234982 -152.814186 875.373840 118 80 65
-707.769012 88.987112 793.105125 107 80 67
-664.587927 -118.224132 861.163712 150 113 92
-654.335213 -192.250621 884.791183 128 89 77
-642.006445 106.286633 840.772247 107 80 67
-658.577204 -335.075998 914.024353 96 69 60
-654.538822 -145.303166 874.691391 92 58 50
-231.082773 -34.405220 1138.279629 58 33 28
-653.839874 -170.659101 883.893585 164 125 104
-653.129292 -147.782969 880.286121 162 122 102
-558.177853 28.223008 905.239487 133 97 84
-653.431034 -151.312792 881.275558 110 67 54
-656.955910 -335.469103 919.870949 32 23 31
-230.122781 -84.862131 1152.751350 172 130 111
-229.867291 -31.378245 1143.048382 181 138 120
-653.157616 -143.354416 883.710575 90 57 48
-653.208780 -165.819013 889.158726 80 59 65
-652.598858 -161.836898 889.719582 143 109 92
-654.118967 -185.659015 894.501305 160 120 102
-652.262926 -157.577038 889.951134 103 68 56
-657.823658 -330.977464 924.945831 123 87 72
-665.172243 -298.463535 912.865734 118 74 56
-654.383326 -180.535030 894.213009 165 122 102
-224.624038 -2.291488 1142.413425 85 59 60
-553.476954 27.249625 917.496872 31 24 37
-224.145055 2.890741 1143.314457 126 91 74
-652.736282 -145.582879 890.476799 155 114 92
-652.397776 -170.717740 896.960831 98 63 54
-652.257872 -185.609019 902.401733 141 103 89
-660.934782 -103.781378 879.166603 113 70 52
-652.614784 -152.565968 895.931244 106 76 71
-651.541758 -155.985582 902.365303 153 116 97
-554.714537 33.450180 927.136135 57 69 73
-554.187536 38.882357 927.169800 47 55 59
-660.707474 -115.426183 892.732716 112 80 66
-651.744890 -182.410729 914.836788 125 82 70
-558.432436 -13.602237 937.793541 103 81 76
-650.784540 -142.113948 906.735897 162 120 101
-558.001661 9.004749 933.374119 131 103 98
-869.302750 -65.007317 749.300623 132 102 92
-559.492064 0.310487 935.134602 120 93 85
-651.757097 -145.051944 909.770298 126 86 74
-653.782988 -200.481725 921.199894 58 38 43
-651.590538 -199.551153 922.926140 58 38 43
-651.590538 -199.551153 922.926140 58 38 43
-874.846363 -65.446401 751.016760 91 64 58
-651.508093 -153.187370 913.575172 117 78 65
-561.803389 4.094777 936.716938 52 40 39
-558.648682 -9.018303 941.869259 50 37 36
-652.997160 -313.185525 949.584198 136 98 83
-638.576698 -43.529078 907.461071 142 108 96
-638.411617 -43.602955 907.657051 142 108 96
-642.830372 -50.568032 909.462738 130 93 83
-655.086565 -277.824163 953.647137 132 97 84
-655.999708 -297.526097 958.887959 87 59 50
-652.759409 -327.106786 968.212223 28 21 26
-656.526375 -285.206175 958.838940 73 53 50
-654.295444 -301.097584 965.601254 54 53 64
-654.295444 -301.097584 965.601254 54 53 64
-552.454424 1.831412 961.241722 88 60 51
-654.472971 -324.261594 972.151947 108 78 64
-654.718637 -273.393297 961.037540 55 48 59
-654.587889 -305.711174 970.642757 133 99 81
-759.725857 -62.746698 851.591969 109 84 73
-647.782373 -92.871153 929.249287 79 53 48
-648.570156 -118.913507 936.224270 41 28 30
-655.392265 -300.521564 973.534203 51 48 61
-649.962950 -123.148918 936.444759 68 78 82
-647.570992 -111.408651 936.185074 85 96 100
-649.076796 -87.384933 929.905987 56 44 46
-649.072266 -96.341246 932.174873 43 32 38
-648.956060 -107.546401 935.204983 41 30 32
-644.812584 -135.175657 944.296932 97 88 85
-514.335108 12.181294 992.182922 88 60 51
-647.704172 -91.463000 932.924271 89 88 89
-646.693659 -90.366864 934.841537 86 84 87
-654.887486 -300.325251 979.235268 66 61 67
-702.824974 -46.637562 894.730568 109 84 73
-647.311449 -121.707296 945.571899 26 20 21
-549.583244 5.730588 977.106094 131 97 82
-650.238609 -164.461899 954.232693 51 39 44
-548.271418 15.477805 976.166630 145 114 99
-654.764080 -298.771000 985.928535 50 50 61
-648.842049 -107.404172 946.300030 45 37 38
-552.745152 9.930543 979.757404 49 39 44
-645.997953 -136.763906 957.632637 83 86 93
-643.180609 -152.980840 964.313126 127 96 91
-645.050049 -175.124025 968.355846 126 89 100
-644.482279 -189.472592 973.653412 53 24 34
-645.155096 -94.871628 951.721668 105 89 95
-645.094538 -107.033694 955.034542 41 45 48
-652.525902 -319.335532 999.727535 124 88 74
-653.172159 -277.816534 990.231705 91 72 72
-653.172159 -277.816534 990.231705 91 72 72
-654.290056 -302.423501 995.541477 144 107 89
-644.290733 -169.230044 971.194172 31 26 27
-653.156996 -268.229246 988.793087 59 48 59
-643.990517 -161.780882 969.906235 71 57 53
-652.086401 -322.892642 1003.408051 33 22 28
-644.023561 -186.877275 977.331734 137 105 96
-644.973660 -177.889657 974.954033 55 27 45
-642.554855 -160.472441 975.554085 177 135 119
-642.554855 -160.472441 975.554085 177 135 119
-641.854382 -106.132793 963.624763 39 41 46
-642.407370 -182.974637 981.791878 33 13 16
-642.669535 -176.017380 981.274509 169 132 113
-642.669535 -176.017380 981.274509 169 132 113
-629.359674 -121.616685 977.689266 94 88 90
-643.829823 -152.278793 976.159382 28 28 33
-641.198540 -108.965182 968.391895 85 71 71
-546.673393 -3.988697 1003.431416 96 76 70
-548.030853 3.386829 1000.965405 126 97 89
-639.546919 -182.613051 989.580822 165 129 113
-547.165489 9.212410 1000.566959 114 89 80
-654.419279 -251.259422 996.980667 140 102 88
-551.034355 -1.194499 1002.268314 52 37 37
-645.443201 -148.972082 980.204201 118 88 71
-639.854383 -103.870976 973.219299 19 22 26
-550.379944 12.626266 1000.107288 56 39 39
-646.955061 -153.592968 981.184387 105 117 115
-648.006296 -116.959274 972.246170 39 33 35
-648.006296 -116.959274 972.246170 39 33 35
-642.957401 -185.878742 991.295719 108 67 73
-545.916891 -4.734318 1007.752037 32 27 37
-647.881508 -168.814623 986.211586 78 51 45
-645.669413 -155.112612 984.751034 36 33 41
-645.669413 -155.112612 984.751034 36 33 41
-641.437006 -99.864221 974.467468 66 74 79
-610.341406 152.635098 936.398983 69 50 45
-648.034239 -157.433236 986.767960 126 98 83
-645.588732 -146.183980 985.758018 137 100 82
-640.772295 -180.759609 997.127151 141 104 110
-645.890522 -158.610642 990.324974 124 88 74
-679.358244 -25.269526 940.213013 122 92 76
-648.834229 -104.428339 976.636982 25 29 35
-648.834229 -104.428339 976.636982 25 29 35
-647.016668 -152.663374 989.296341 130 98 84
-608.724022 -17.367561 981.251049 102 80 70
-646.333218 -155.871665 994.362926 111 92 83
-643.628407 -168.776381 999.211025 55 47 48
-643.628407 -168.776381 999.211025 55 47 48
-653.113937 -302.275729 1024.895000 79 56 66
-644.930410 -105.319870 984.687233 77 74 75
-642.534971 -171.361732 1002.444267 84 92 91
-549.647665 8.908875 1014.794636 72 50 43
-681.022978 -21.885532 945.925045 64 44 40
-643.419027 -130.247557 993.641949 79 94 99
-642.756653 -171.149278 1003.652763 67 72 77
-645.036411 -126.427650 992.237473 34 28 29
-645.036411 -126.427650 992.237473 34 28 29
-640.205908 -165.530825 1004.285908 71 78 79
-644.807434 -142.379904 996.657372 86 92 94
-644.799614 -136.723149 995.680332 31 31 39
-635.386467 -32.685426 977.655506 104 82 88
-641.777897 -176.311290 1008.365059 37 28 35
-643.656921 -143.595731 1000.931168 39 39 42
-653.422213 -256.562710 1022.381210 83 59 66
-614.167643 -7.398297 987.478352 122 92 76
-654.368639 -293.255162 1031.332493 38 27 38
-645.875978 -102.961135 992.116261 73 75 80
-642.090225 -165.375435 1009.614277 42 49 57
-648.939466 -65.426266 983.273029 72 57 72
-650.818586 -70.934170 983.808327 79 56 61
-650.818586 -70.934170 983.808327 79 56 61
-643.227577 -135.696816 1004.289627 62 51 53
-650.369835 -316.496754 1042.624283 32 21 27
-602.387762 86.881626 976.701355 98 144 169
-643.984318 -158.692527 1010.566425 115 89 82
-643.176365 -132.112014 1005.197239 93 100 101
-645.885801 -140.120661 1005.558777 153 115 96
-654.894543 -258.282590 1028.457928 163 124 106
-645.577860 -173.134351 1015.696907 46 42 52
-641.455698 -180.742645 1020.099258 34 30 41
-643.425941 -163.147831 1014.856625 121 106 100
-642.111206 -158.591783 1016.596794 55 34 30
-642.701674 -154.968989 1015.810204 94 102 104
-644.081306 -144.061017 1013.273430 57 42 46
-642.217827 -164.409804 1019.436550 81 57 58
-645.823717 -104.721570 1003.403950 72 62 74
-652.157450 -78.307962 993.703270 147 109 95
-639.504480 -176.274395 1024.628353 69 82 85
-640.749264 -179.526794 1024.775124 33 36 41
-643.822861 -133.052838 1013.084221 87 105 107
-643.822861 -133.052838 1013.084221 87 105 107
-641.308975 -160.309768 1021.298695 113 92 87
-641.308975 -160.309768 1021.298695 113 92 87
-644.523573 -136.050296 1015.517712 77 88 92
-644.523573 -136.050296 1015.517712 77 88 92
-650.591087 -315.086246 1054.387188 34 22 26
-643.045616 -156.107843 1021.250248 114 95 93
-651.289940 -79.649282 998.679256 23 14 12
-652.045584 -88.134187 1000.417995 137 103 89
-650.754833 -54.690009 993.417835 42 23 20
-640.272331 -176.426649 1028.917599 65 74 80
-640.018845 -117.346764 1015.340042 23 26 33
-643.684578 -170.158529 1026.040268 14 15 19
-642.570877 -137.141466 1018.873882 50 49 55
-643.091917 -158.514786 1024.711895 73 54 69
-651.860809 -62.430978 997.577286 180 133 115
-642.958212 -141.482151 1021.751595 75 82 90
-643.252659 -147.375786 1023.303223 60 50 51
-646.221876 -130.871773 1018.211079 44 46 49
-656.343651 -262.842369 1043.495274 126 82 59
-653.529215 -93.693852 1005.526066 130 100 84
-651.169205 -48.934278 996.496105 159 120 103
-651.169205 -48.934278 996.496105 159 120 103
-651.722717 -87.881082 1005.496788 25 14 12
-652.730274 -96.268994 1007.652378 25 14 13
-644.650173 -156.443608 1026.976967 79 83 86
-680.578566 -259.473562 1031.622982 187 137 116
-654.229641 -203.642511 1033.623028 129 82 64
-635.125065 -185.817587 1040.823460 82 50 67
-635.125065 -185.817587 1040.823460 82 50 67
-645.783901 -106.907082 1016.837597 66 57 71
-652.312088 -84.317523 1007.922745 153 117 94
-644.382668 -193.400645 1038.333321 138 109 110
-651.951456 -203.915858 1037.088966 123 75 57
-650.550556 -56.543332 1003.095245 41 24 19
-650.550556 -56.543332 1003.095245 41 24 19
-640.193415 -174.367881 1037.199402 32 30 32
-650.753593 -80.082726 1009.120274 168 125 104
-650.363398 -45.065087 1001.207542 50 28 20
-644.082451 -138.463449 1027.207279 43 42 45
-645.408916 -166.147888 1034.725952 101 74 63
-649.907780 -69.322145 1009.403133 95 63 57
-648.357344 -71.610224 1011.484146 168 128 110
-642.502880 -149.738014 1034.183884 85 97 98
-652.603722 -198.097610 1040.276909 183 136 118
-639.997244 -171.270013 1040.873051 79 96 96
-644.580173 -130.277669 1028.778839 142 106 87
-637.944317 -116.483009 1029.886532 23 19 20
-642.103767 -145.032084 1034.614944 27 29 32
-649.669218 -55.214423 1009.565544 180 132 111
-651.429033 -50.667298 1007.498646 183 133 113
-643.057871 -159.718180 1038.107204 42 41 54
-650.770283 -93.448901 1018.440247 24 14 14
-230.870724 -69.493330 1245.370960 118 74 56
-640.645885 -137.817287 1036.892128 76 84 87
-646.985674 -77.307248 1019.123077 111 72 63
-646.985674 -77.307248 1019.123077 111 72 63
-653.792620 -247.775412 1056.036854 119 75 55
-642.225838 -149.548936 1040.044212 32 27 29
-553.421545 27.169064 1047.091961 80 55 53
-650.928307 -199.982381 1048.457527 122 76 55
-649.308586 -61.674619 1016.587067 182 134 116
-642.231369 -136.308324 1038.393784 75 87 93
-646.864510 -59.443009 1017.640781 160 117 100
-645.586157 -309.336352 1077.771091 31 21 24
-644.007921 -106.100261 1031.479836 69 60 71
-649.934006 -56.996810 1016.739941 144 104 90
-640.728188 -132.894266 1040.536118 27 31 38
-640.728188 -132.894266 1040.536118 27 31 38
-641.996431 -142.401803 1042.819691 87 68 67
-640.833187 -115.097916 1037.071419 19 17 26
-642.279959 -163.641107 1048.137856 97 104 99
-642.092800 -135.488117 1042.051888 31 28 34
-643.050909 -171.935773 1050.185966 24 26 33
-649.149513 -78.543228 1024.945736 126 82 67
-651.562214 -88.120329 1026.242161 30 14 11
-639.753103 -152.327371 1048.146057 136 103 86
-710.226727 -405.000019 1069.795513 71 36 26
-641.459274 -130.572593 1042.341328 82 98 97
-537.499809 216.480708 1016.639805 36 24 26
-545.380831 53.338712 1052.200985 63 81 82
-649.164391 -49.234664 1021.722221 183 132 112
-640.620804 -158.484185 1052.587509 157 115 88
-641.467285 -158.822381 1052.443600 149 112 90
-649.230623 -285.140061 1078.922558 52 37 40
-641.265249 -151.005459 1051.685238 56 54 62
-635.633755 -173.020828 1060.747242 109 83 90
-650.638533 -88.348234 1032.854748 138 101 84
-642.508459 -110.815060 1042.961407 31 27 38
-650.778198 -80.378199 1032.307053 146 108 97
-708.448410 -401.109457 1077.719212 134 92 73
-647.219515 -67.831123 1033.008957 123 83 73
-649.096394 -47.035930 1027.104664 149 111 99
-640.898228 -130.327094 1051.454163 141 107 93
-548.110437 68.303621 1054.233551 53 63 65
-649.562168 -52.290988 1028.608799 24 13 14
-649.562168 -52.290988 1028.608799 24 13 14
-629.969597 -36.226484 1036.988449 149 111 99
-648.416281 -40.712318 1027.040386 42 20 16
-642.540216 -148.315716 1056.304359 122 81 61
-647.943211 -29.907548 1025.228024 44 25 18
-650.126266 -82.144213 1036.669350 25 15 13
-650.126266 -82.144213 1036.669350 25 15 13
-650.714684 -93.412089 1039.096928 21 14 12
-642.169094 -131.410217 1054.728603 137 105 91
-547.023010 62.022942 1059.372520 14 19 26
-647.527266 -65.887237 1037.466240 128 87 74
-639.102507 -171.205139 1067.179871 109 74 85
-650.965166 -86.033010 1041.051579 31 16 11
-648.442316 -43.210137 1032.220745 168 129 108
-633.541822 -168.557096 1070.531368 109 74 85
-647.643852 -72.415626 1040.254116 25 14 12
-648.102522 -32.124132 1030.494881 167 126 106
-648.102522 -32.124132 1030.494881 167 126 106
-640.567970 -134.985518 1059.500599 29 25 30
-640.567970 -134.985518 1059.500599 29 25 30
-641.790342 -98.028433 1050.283813 42 34 36
-544.272089 201.966357 1030.442429 93 84 95
-639.954948 -167.238951 1068.239689 29 15 26
-546.929073 37.911272 1068.658543 76 70 87
-544.030428 213.000941 1029.254055 85 74 92
-638.228846 -125.357854 1060.586262 41 41 49
-641.739178 -161.025512 1067.933559 54 68 67
-643.709993 -177.436543 1071.074104 48 33 40
-659.407520 -38.763434 1028.996468 161 126 109
-648.588324 -35.612148 1035.289764 28 15 15
-638.638449 -83.421594 1052.430534 104 81 82
-646.928549 -24.851002 1034.277821 32 17 15
-647.813416 -259.544110 1090.913010 120 80 66
-644.564009 -180.464220 1074.030304 139 105 91
-640.257502 -146.061981 1068.201065 69 47 41
-637.773609 -138.170862 1068.063068 37 36 40
-643.906784 -287.531519 1102.618790 118 86 71
-638.019514 -165.453827 1077.205086 174 139 117
-640.247726 -128.034592 1067.162323 42 36 43
-552.806473 42.068547 1074.137115 22 23 32
-641.626644 -81.170028 1057.425022 46 35 45
-641.537237 -159.121072 1077.064514 92 59 44
-638.831043 -133.668089 1072.917843 175 133 116
-638.831043 -133.668089 1072.917843 175 133 116
-633.614492 -131.018150 1075.835896 175 133 116
-633.614492 -131.018150 1075.835896 175 133 116
-639.153385 -164.482892 1081.259537 60 28 31
-644.852448 -185.170043 1083.704662 136 100 88
-640.535450 -166.547811 1082.736206 115 88 77
-637.807989 -170.431578 1086.328793 136 101 88
-647.802925 -305.635285 1114.022255 25 18 26
-637.004232 -161.733305 1085.081291 65 44 40
-640.167332 -148.292756 1080.509949 86 57 62
-633.879566 -133.840179 1080.777454 43 41 40
-636.445570 -89.057821 1070.332050 27 33 36
-647.836208 -278.004169 1110.909748 51 47 58
-647.612762 -5.896907 1045.886135 84 66 60
-648.697472 -301.230359 1117.516041 118 80 68
-641.161776 -165.666878 1088.799763 44 28 41
-639.443350 -120.577633 1079.217625 31 34 39
-647.759724 -282.469368 1114.882660 134 99 83
-635.034418 -92.319059 1075.516510 78 73 73
-638.304329 -135.889220 1084.510136 52 48 49
-637.367868 -158.811247 1091.286469 159 125 108
-640.200615 -116.494417 1079.738712 51 57 61
-646.793890 -2.634914 1050.282192 41 30 27
-641.169691 -152.717721 1089.481544 48 33 30
-641.169691 -152.717721 1089.481544 48 33 30
-647.460508 7.530814 1047.965336 69 44 39
-647.007990 -248.492455 1110.480499 54 50 63
-648.147249 -294.361067 1121.537304 90 60 56
-640.042734 -163.975275 1094.226742 33 21 37
-647.449398 -257.904911 1113.215256 56 52 62
-647.449398 -257.904911 1113.215256 56 52 62
-638.612890 -176.902437 1098.402500 137 101 88
-640.058136 -120.629382 1084.025478 79 90 92
-642.881680 -115.957141 1082.785130 28 28 31
-641.886759 -148.013186 1090.820885 110 79 89
-641.886759 -148.013186 1090.820885 110 79 89
-651.178885 13.774757 1047.277260 61 43 40
-643.823624 -269.638491 1119.985580 77 79 81
-640.811825 -132.622862 1088.409138 37 27 26
-640.811825 -132.622862 1088.409138 37 27 26
-635.531139 -88.215327 1081.271744 35 36 42
-640.525913 -165.698254 1098.325729 43 29 43
-653.824949 9.716003 1050.149345 112 79 66
-585.147667 11.000361 1085.448837 84 66 60
-639.247513 -133.369946 1094.062424 115 80 95
-641.464615 -123.593712 1091.294956 114 84 75
-643.579245 -201.711154 1109.866238 99 71 71
-641.570997 -170.232296 1103.736401 67 39 57
-641.570997 -170.232296 1103.736401 67 39 57
-636.449099 -89.669591 1086.964989 84 91 91
-637.017155 -143.428838 1099.750996 104 74 89
-640.088129 -127.598512 1097.595119 52 31 36
-640.867376 -146.096039 1102.736855 68 40 48
-641.596079 -138.592339 1100.939178 90 68 60
-646.514606 -246.154904 1124.713612 46 42 56
-629.838896 -102.852452 1098.240948 87 79 87
-637.628412 -85.337579 1090.205193 21 24 29
-631.696510 160.672092 1035.542107 83 60 53
-642.396641 -158.102059 1108.289623 131 96 85
-593.345308 35.478485 1086.262226 115 83 71
-645.191813 -273.798299 1136.595821 47 48 57
-629.933596 175.002217 1035.275173 43 30 26
-637.977743 -72.576821 1091.933727 101 86 95
-629.097795 209.507704 1029.365063 51 34 28
-646.381235 -279.366088 1140.437603 130 93 78
-629.437494 198.070359 1032.249641 54 34 30
-646.919775 -297.896457 1144.834805 108 75 66
-597.915983 9.722427 1093.844700 26 23 37
-594.629812 16.278148 1094.095135 39 29 27
-646.880627 -287.361836 1143.524837 127 91 76
-633.925247 -3.990695 1081.075764 113 90 95
-630.621910 173.235488 1039.483833 80 60 52
-630.750084 162.025678 1042.360973 87 65 52
-638.781118 -83.969033 1099.062920 36 27 29
-636.886406 -74.740797 1098.522186 61 43 43
-638.890982 -96.202856 1103.706264 21 17 17
-646.916628 -252.657628 1138.524246 57 49 60
-645.844746 -244.629526 1137.245464 43 42 56
-599.314785 14.817955 1096.858406 79 61 56
-645.835733 -279.830575 1147.055435 81 49 38
-645.835733 -279.830575 1147.055435 81 49 38
-636.297083 -3.908011 1084.990501 82 55 55
-645.280933 -243.093991 1140.226269 57 48 55
-606.633806 17.932139 1095.122623 38 30 31
-644.494200 -201.270819 1131.118584 95 65 58
-606.348181 32.109508 1092.760944 44 33 34
-644.558859 -294.098473 1154.198170 101 73 61
-645.691061 -256.368685 1146.001339 70 46 39
-614.288282 145.360994 1064.045525 42 29 28
-645.114183 -265.111589 1150.287819 83 54 45
-641.545916 -108.018494 1113.490009 85 97 100
-639.678955 -85.024190 1109.029293 80 90 91
-637.113285 -73.564124 1108.063507 88 89 89
-641.092920 -144.723284 1123.683071 99 64 57
-638.669634 -95.370889 1112.750530 69 78 77
-639.552164 -102.047002 1114.266396 32 26 22
-639.930391 -229.590392 1145.510674 135 102 85
-636.278391 -17.575322 1095.122242 98 67 63
-646.483135 -247.000599 1146.567059 132 94 82
-640.459538 -133.261406 1121.949768 101 65 51
-637.798452 -64.585018 1106.657887 96 93 91
-640.512466 -111.101365 1117.639637 92 58 48
-638.205147 -79.365051 1112.024784 50 35 31
-644.952583 -259.651089 1153.242874 133 98 81
-637.977171 -68.542624 1110.332966 47 30 29
-637.781000 -59.501481 1108.283615 63 48 46
-637.728596 -62.738860 1110.369110 66 47 45
-602.633190 51.111466 1099.283981 18 15 30
-637.894106 -37.821791 1105.567074 93 57 51
-636.890268 -24.885228 1103.302860 90 54 47
-605.834675 47.571206 1101.882458 74 63 83
-647.977877 -244.728708 1154.112720 133 94 80
-637.959719 -72.081190 1116.460228 134 101 86
-609.179783 64.038795 1097.037125 39 49 51
-640.342474 -97.998321 1122.491169 146 106 88
-638.667011 -99.163187 1128.359318 138 94 77
-638.543415 -110.930967 1132.651520 129 86 73
-597.719860 228.834653 1068.576431 62 50 63
-641.997814 -176.461339 1148.679733 152 114 97
-634.382486 13.741972 1106.719971 24 25 39
-623.159122 81.285614 1098.249245 22 17 13
-634.182024 -0.576628 1113.539314 138 102 90
-640.197611 -164.623117 1152.761459 77 62 66
-640.197611 -164.623117 1152.761459 77 62 66
-640.390921 -158.686936 1151.611614 151 112 95
152.220893 168.592775 1509.336662 112 91 96
-638.959503 -107.521760 1141.297245 109 65 53
-638.915348 -117.111099 1144.978142 116 76 63
-638.915348 -117.111099 1144.978142 116 76 63
-189.911330 -48.951966 1333.633900 38 27 38
-632.213974 53.374767 1106.497383 26 23 34
-632.213974 53.374767 1106.497383 26 23 34
-649.748993 -265.787816 1178.376579 123 89 74
-636.532736 20.253056 1114.565849 126 91 77
-648.970032 -231.405401 1172.264671 147 112 92
-636.913061 -97.232276 1144.485188 74 51 61
-631.522655 71.886045 1105.389404 96 67 57
-638.680935 -103.797781 1146.900368 159 117 102
-632.467508 97.791195 1099.747372 56 37 30
-628.967333 183.083713 1080.199623 51 34 27
-628.643513 203.271341 1075.496197 85 60 52
-631.509638 114.834404 1096.816730 56 36 30
-626.198959 217.718887 1075.396061 46 29 23
-632.454252 83.847624 1106.857300 56 37 31
-628.865480 19.276607 1124.641895 47 34 42
-630.978251 105.302346 1102.236557 113 79 67
-630.454636 101.875353 1103.425121 114 80 66
-631.849241 88.525063 1106.150723 119 84 67
-630.762577 120.884180 1098.832703 104 75 63
-630.055046 132.958198 1096.188927 63 39 32
-630.055046 132.958198 1096.188927 63 39 32
-629.805088 118.573439 1100.296211 116 82 67
-644.165945 -280.230880 1193.639088 120 88 76
-629.369164 149.864781 1093.159771 59 38 34
-633.816957 31.722948 1120.760345 97 61 52
-633.816957 31.722948 1120.760345 97 61 52
-633.816957 31.722948 1120.760345 97 61 52
-629.537582 130.049264 1098.899460 115 82 69
-638.228989 -101.172996 1152.669907 87 63 63
-639.759350 -116.617095 1156.250858 148 108 92
-639.759350 -116.617095 1156.250858 148 108 92
-628.258610 167.026281 1090.823460 63 39 32
-626.953888 184.149432 1087.632370 56 37 31
-641.180563 -52.972156 1140.500355 79 59 66
-641.180563 -52.972156 1140.500355 79 59 66
-640.373945 -52.636230 1140.895844 79 59 66
-640.373945 -52.636230 1140.895844 79 59 66
-228.866124 -29.809085 1320.486164 108 62 45
-627.398252 201.483846 1084.382057 49 30 25
-628.324175 147.706985 1097.520256 113 82 68
-635.854530 -153.071344 1169.133186 143 106 87
-646.317816 -234.745169 1185.964489 167 125 107
-638.001919 -104.267371 1157.264423 83 60 62
-636.208916 -98.618710 1156.785107 135 104 93
-633.436918 62.493455 1118.179417 113 80 67
-626.967192 187.490165 1090.081024 108 76 63
-637.821245 -110.388744 1160.707760 96 71 71
-631.730413 98.900598 1111.487484 45 34 45
-646.507597 -72.501397 1148.151684 124 93 73
-646.507597 -72.501397 1148.151684 124 93 73
-638.109112 -115.967762 1163.278294 79 57 59
-625.562191 237.979960 1081.397915 14 11 11
-626.014328 217.619133 1086.382389 100 74 60
-643.240595 -168.748641 1175.531483 145 106 91
-649.955940 -70.444661 1147.980213 61 33 26
-649.955940 -70.444661 1147.980213 61 33 26
-644.279957 -85.339254 1154.311562 39 29 26
-649.333382 -235.119629 1189.711857 166 123 105
-635.667038 -99.744630 1162.894249 147 106 92
-637.904215 -119.663823 1167.775059 91 65 62
-637.904215 -119.663823 1167.775059 91 65 62
-632.402849 28.392911 1133.623314 134 97 82
-641.588926 -46.494609 1148.478794 37 24 21
-662.348557 -28.028402 1134.517956 37 23 22
-637.399006 -109.921372 1167.271423 113 72 63
-637.399006 -109.921372 1167.271423 113 72 63
-631.570387 71.947187 1124.739742 116 79 67
-634.383249 106.332505 1115.670490 26 18 27
-634.383249 106.332505 1115.670490 26 18 27
-638.805485 -118.508494 1170.858288 134 98 83
-636.381388 -120.777202 1172.846127 58 42 51
-636.381388 -120.777202 1172.846127 58 42 51
-641.758776 7.098738 1138.655758 45 31 33
-641.125298 -52.866507 1154.889488 172 129 112
-645.042372 -66.344821 1157.526207 149 108 85
-637.278795 -99.187088 1169.768143 102 66 59
-631.361675 38.097203 1139.166641 124 89 79
-631.361675 38.097203 1139.166641 124 89 79
-638.748503 -153.339970 1184.858322 137 99 81
-645.106840 -67.867672 1160.836411 108 64 50
-627.535820 92.647713 1128.320885 116 79 63
-631.775045 36.717254 1141.067314 100 65 54
-638.218355 -124.265313 1178.935337 158 118 97
-816.021061 -70.886445 1087.698650 36 20 13
-799.142885 -66.322935 1094.980526 42 21 11
-633.704090 39.592347 1140.156937 107 68 54
-638.490725 -106.221962 1174.909401 115 70 60
-2.908339 49.600437 1414.773273 118 74 56
177.155173 218.616986 1518.801689 135 100 79
-625.465727 246.689606 1092.287445 12 10 10
-636.841059 -101.483405 1175.132656 156 114 96
-636.841059 -101.483405 1175.132656 156 114 96
-643.700266 -58.626503 1162.038517 128 84 61
-645.155191 -81.323284 1167.090416 27 17 10
-638.656378 -148.405206 1187.187481 113 76 61
-640.820646 -104.719472 1175.393009 151 111 94
-642.002821 -44.249490 1159.737301 42 24 18
-637.212133 -115.430188 1179.831982 146 109 90
-632.093573 97.640771 1129.128361 134 98 82
-631.560564 79.120231 1134.032154 131 93 76
-636.670208 -157.812726 1191.739655 90 75 78
-630.412149 83.982551 1133.767033 94 60 49
-630.522871 88.891584 1133.137989 146 105 84
-644.250488 111.506879 1121.833897 26 20 13
-638.006258 -155.935073 1191.954327 58 35 35
-643.074417 -277.887654 1221.360779 77 47 38
-643.074417 -277.887654 1221.360779 77 47 38
-642.133379 -88.035655 1173.982620 43 35 43
-636.320496 -119.343245 1184.753418 62 47 57
-630.598116 95.669144 1133.286190 109 68 60
-636.665154 -97.708511 1179.855347 99 67 55
-642.407703 -81.185585 1173.191452 150 117 89
-642.407703 -81.185585 1173.191452 150 117 89
-630.185270 79.185891 1138.913918 95 60 49
-630.185270 79.185891 1138.913918 95 60 49
-625.231218 227.592301 1103.839684 68 43 36
-639.671612 -57.187670 1169.557571 170 127 101
-631.274176 29.624572 1151.754761 141 101 85
-630.630445 44.643262 1148.442364 150 111 94
-629.435921 74.956453 1141.334248 130 94 74
-640.522766 -50.773484 1168.636990 169 127 108
-637.652016 -119.091713 1187.365246 60 47 55
-629.808044 89.195442 1138.418770 73 41 34
-648.140001 -246.831346 1216.674423 106 61 48
-636.762381 -110.657644 1187.395191 149 110 92
-625.284386 226.383257 1107.491112 114 79 66
-630.262184 98.070097 1137.807369 83 54 47
-630.262184 98.070097 1137.807369 83 54 47
-636.289978 -113.718820 1188.778400 137 102 84
-640.262127 -278.985572 1228.696918 109 74 61
-625.373459 243.175912 1103.893375 102 75 62
-631.241703 47.587231 1151.698685 72 64 67
