ply
        format ascii 1.0
        element vertex 25634
        property float x
        property float y
        property float z
        property uchar blue
        property uchar green
        property uchar red
        end_header
107.191038 -129.082823 950.645828 28 25 52
105.792379 -64.657015 952.442169 113 96 144
111.539197 -185.385263 939.761353 30 29 61
106.633592 -34.810191 949.088192 113 97 150
108.972275 -27.310300 944.874096 92 78 134
108.388257 -61.279529 951.347256 49 44 91
110.838246 -37.121373 950.044632 51 42 87
111.321139 -74.492580 954.937077 38 31 59
111.321139 -74.492580 954.937077 38 31 59
111.453629 -56.728005 953.889084 41 31 61
111.453629 -56.728005 953.889084 41 31 61
111.595190 -56.709456 954.234123 49 39 67
111.703384 -59.734005 954.174137 85 75 127
101.374948 -336.264610 1000.107765 133 114 135
101.566732 -347.870350 1000.151730 102 81 108
112.072194 12.064251 952.025223 39 31 64
112.072194 12.064251 952.025223 39 31 64
112.072194 12.064251 952.025223 39 31 64
101.806879 -275.452042 996.498394 53 44 60
120.265675 -136.886454 938.060474 25 23 54
117.429030 -18.667299 942.454052 89 79 132
127.656150 -216.910958 919.684410 94 83 131
117.578661 -27.039963 944.521809 101 86 140
117.578661 -27.039963 944.521809 101 86 140
115.509236 -79.263926 955.528069 43 35 69
115.509236 -79.263926 955.528069 43 35 69
127.406180 -210.797811 923.893738 71 63 109
117.628014 -32.732087 949.830055 54 44 90
116.474056 7.670302 952.213764 37 32 65
117.782378 -9.645207 950.328255 36 29 58
108.458292 -274.358201 996.994686 70 59 84
121.273458 -19.716786 949.779415 81 72 126
121.270573 -16.897275 950.711727 30 23 54
121.270573 -16.897275 950.711727 30 23 54
110.550499 -289.082193 997.908497 117 94 116
121.819496 -25.411573 950.507069 53 45 84
112.078953 -292.814589 998.140144 120 99 117
112.741506 -331.781936 999.970150 97 78 108
141.073656 91.525048 891.609478 68 52 95
114.712775 -285.386205 997.278118 103 80 110
125.347519 -56.706601 952.389050 46 35 60
114.917624 -290.659070 997.333241 100 79 109
125.040340 -7.681812 951.275539 85 73 129
143.834233 72.228163 893.446445 110 93 140
118.041039 -345.514894 1000.913525 86 70 100
118.433738 -271.232653 997.143364 138 116 134
145.332921 96.842211 890.759945 65 53 93
120.493722 -274.074841 997.579956 71 54 79
120.868587 -284.824562 997.290611 104 84 111
130.772245 -52.557695 953.194523 37 28 56
123.104215 -289.789891 997.838593 105 84 114
150.949478 190.159607 882.135391 105 89 133
150.494123 87.984288 890.970707 99 85 137
133.978724 -10.016688 952.907372 38 31 61
133.978724 -10.016688 952.907372 38 31 61
133.978724 -10.016688 952.907372 38 31 61
126.289690 -296.605229 998.779488 86 70 93
125.636768 -269.252706 1001.810646 123 98 123
130.996990 -187.283444 980.144691 27 28 62
153.381252 67.795104 891.297626 103 87 135
156.173503 192.864382 879.674339 75 65 87
156.173503 192.864382 879.674339 75 65 87
137.413836 19.088650 953.244877 53 43 77
157.961369 195.310652 874.581814 125 104 147
138.306379 -14.269146 953.108025 34 27 56
129.037571 -300.458050 1000.397968 132 111 137
130.029702 -274.412155 998.174572 89 73 104
155.904233 70.212352 892.463112 43 40 62
159.618938 113.567650 877.566051 78 66 118
131.390381 -298.919392 997.856522 130 110 136
156.570661 88.530630 890.958595 48 42 65
131.647754 -276.861024 997.416306 123 111 138
131.860244 -296.986389 1000.453281 82 66 93
132.907319 -320.805621 998.660564 105 86 119
158.402073 63.764143 891.034794 135 115 150
142.215526 24.555282 951.010799 43 35 64
159.585714 149.184132 884.138966 67 60 105
159.585714 149.184132 884.138966 67 60 105
236.584759 -95.815879 619.365168 136 121 147
159.784079 153.268278 884.574127 33 28 54
159.048390 68.045217 892.884922 102 88 134
134.256256 -275.076985 997.737408 89 69 99
134.230709 -347.359800 1001.865768 72 48 64
134.288871 -342.862272 1001.864052 88 67 87
144.618034 -77.595973 952.129269 48 41 84
135.851824 -345.365405 1001.677895 126 106 120
135.851824 -345.365405 1001.677895 126 106 120
161.828816 166.341043 884.711361 77 66 117
145.169008 9.712402 952.435207 39 38 71
164.370596 199.868011 874.529743 43 36 59
161.524904 88.932943 891.151333 89 78 129
162.454605 139.336336 886.491966 27 27 44
165.396118 108.088827 877.802181 78 63 116
162.875056 164.217103 885.126114 78 70 112
137.483001 -344.519329 1002.596474 84 69 95
163.172805 153.663528 885.636902 67 60 105
165.914321 214.923859 872.678280 45 40 47
138.234293 -272.482610 997.729397 136 116 137
138.947523 -262.469912 995.804691 134 115 143
163.119042 91.727579 891.181564 41 38 55
138.727248 -304.302883 999.484539 143 121 148
163.084376 71.465242 892.782784 61 52 73
139.228749 -296.112204 998.986530 131 110 127
139.641762 -292.137885 998.750687 81 64 83
141.148698 -334.299088 1001.285076 83 70 102
142.084825 -309.358072 998.912907 95 83 120
141.570437 -288.918185 1000.000286 130 107 131
166.937160 147.526586 886.302662 72 65 108
168.871045 122.919416 881.104946 53 51 86
143.122935 -341.581249 1001.391602 125 113 141
167.195249 104.275429 891.203785 84 73 123
167.368174 100.071800 891.125107 109 92 140
144.187307 -279.077554 996.604443 140 124 150
143.465877 -295.372701 1000.451946 79 62 80
144.115579 -331.762791 1000.493145 102 83 105
144.191074 -347.078967 1001.301384 86 75 108
144.368184 -354.361987 1001.248837 103 88 121
167.913353 84.526962 892.425442 95 81 131
145.090461 -274.958897 997.121906 91 69 101
168.888152 151.539660 886.929512 44 42 54
155.260277 -38.743806 949.601650 67 59 103
155.260277 -38.743806 949.601650 67 59 103
145.853543 -336.432910 1001.745605 127 116 141
146.127951 -340.628934 1001.702785 99 88 123
145.696509 -145.819831 994.382572 89 71 95
148.111916 -314.698076 999.098492 137 118 145
170.918608 90.984565 892.551804 53 42 78
171.771169 128.757548 887.371540 22 23 36
173.588860 122.977626 881.470776 54 54 93
148.385704 -291.486835 998.075199 116 99 112
171.232986 88.832021 892.182541 93 83 133
171.232986 88.832021 892.182541 93 83 133
171.863925 171.976173 885.383511 44 38 63
148.349190 -247.061682 996.199989 128 112 141
148.427117 -332.965159 1001.739502 88 72 104
172.343898 158.796334 885.755825 83 69 120
171.990299 72.199017 892.441368 101 88 135
149.490178 -354.286766 1001.572323 127 113 133
156.977773 24.451491 952.274609 42 34 64
156.977773 24.451491 952.274609 42 34 64
149.656713 -286.525965 998.815918 132 110 124
149.438167 -294.533992 1000.531864 72 53 69
150.209391 -357.054210 1001.812840 103 88 118
149.808514 -152.556396 992.729855 123 105 135
173.631155 138.001442 889.669514 40 35 52
151.316822 -329.190731 1000.287819 132 112 130
151.164210 -317.681956 1000.417137 85 66 97
173.780167 89.613956 892.413902 63 56 85
173.846650 88.151187 892.538834 50 41 69
152.209008 -321.743226 998.985100 100 76 104
152.202952 -319.925570 999.945831 128 109 129
152.640092 -339.606142 1002.463245 124 109 139
153.053761 -349.834704 1001.980305 73 67 102
152.511585 -177.913141 994.793415 125 105 126
176.775610 165.729606 884.498692 40 34 57
176.723337 162.048769 885.502434 89 73 124
161.177921 20.409670 953.100967 48 36 68
161.177921 20.409670 953.100967 48 36 68
154.049253 -332.922530 1001.691151 88 72 102
154.056895 -152.360749 992.346954 77 63 94
176.646245 75.735080 894.201279 53 50 64
155.017197 -174.585044 993.422794 128 107 129
155.463219 -337.265539 1002.443695 135 119 145
180.257452 118.383086 881.870365 29 29 57
155.678332 -328.554296 1002.003193 81 60 77
155.956709 -208.579087 994.506931 98 84 112
155.955267 -294.340420 1000.408936 137 115 132
155.955267 -294.340420 1000.408936 137 115 132
156.200576 -195.589507 993.813705 90 78 110
156.743479 -312.111330 999.724007 91 70 86
175.098431 60.003901 908.710289 61 51 81
156.934702 -244.307923 997.763157 91 72 102
157.137239 -300.281239 1000.423241 78 61 75
157.040358 -180.331254 996.018982 62 57 81
181.876409 192.980480 880.667591 100 80 123
181.492507 127.587712 887.129498 24 27 50
159.255731 -308.837128 1000.361252 81 62 84
159.637821 -222.266531 996.574974 141 120 145
160.067761 -184.862912 992.887592 111 99 130
160.636866 -313.497138 999.578476 132 112 132
160.760939 -141.609395 989.654636 139 117 143
161.546910 -318.442297 999.619102 87 70 97
161.110961 -298.846364 1000.316238 119 105 129
161.573660 -227.455211 994.262505 90 81 115
161.573660 -227.455211 994.262505 90 81 115
162.425840 -338.420057 1001.390743 91 77 112
162.840152 -187.498391 992.856598 87 73 106
163.297319 -202.659774 994.042587 99 84 119
163.297319 -202.659774 994.042587 99 84 119
163.086951 -249.737239 998.365879 123 104 131
185.301507 174.257255 885.000515 53 39 74
163.605106 -245.528316 996.641350 80 67 97
185.615826 73.538071 892.197704 37 32 49
185.966349 154.913759 886.353207 58 42 83
185.925639 162.544978 886.814022 53 41 84
165.044010 -319.087529 999.549961 129 109 126
164.247406 -177.104747 994.194698 125 105 126
165.844822 -321.773267 999.850273 100 78 105
165.757394 -247.905350 995.993805 121 102 129
166.076243 -297.056031 999.925232 89 75 104
187.034833 94.241774 891.967297 82 67 102
187.034833 94.241774 891.967297 82 67 102
166.288173 -293.181252 999.817085 134 115 132
166.375625 -335.676765 1002.174091 127 112 137
166.662931 -332.603979 1002.413177 102 75 95
166.453385 -145.358813 991.541481 85 69 101
188.120663 179.423547 885.092258 45 40 63
166.739035 -179.932165 993.384552 77 63 89
166.739035 -179.932165 993.384552 77 63 89
187.792265 105.261385 891.558456 85 76 124
188.581049 137.406516 887.182140 47 40 62
167.896938 -318.640780 1000.258255 100 76 104
168.217838 -312.880087 999.559212 93 76 105
167.886913 -243.892241 997.216129 131 112 130
167.886913 -243.892241 997.216129 131 112 130
189.370871 73.694211 892.695045 99 86 131
189.282358 76.674777 893.066311 46 38 64
189.618409 151.530266 886.995792 46 36 80
189.702463 166.215086 885.858917 56 43 91
168.745160 -295.902348 1001.209736 82 67 98
169.645524 -320.840311 1000.409698 129 110 127
169.645524 -320.840311 1000.409698 129 110 127
176.679230 -0.408024 951.932907 36 28 55
169.908023 -111.228609 989.658928 71 53 74
169.445193 -109.233987 991.552544 124 101 117
170.535600 -179.647052 992.737293 115 102 126
171.066701 -227.758503 995.315742 88 76 111
171.629858 -348.248601 1001.631355 108 90 121
171.378040 -175.720716 991.890526 128 108 130
171.712220 -296.706128 999.613953 83 68 98
171.369135 -223.724532 996.384716 130 115 139
171.334636 -177.948189 993.612289 86 67 94
171.888185 -279.189301 999.661064 61 52 78
171.924484 -256.473160 998.511600 77 58 78
193.654346 157.902539 886.802006 94 82 129
174.374413 -325.522065 1000.084114 101 79 108
174.180198 -275.865102 1001.441002 139 117 136
175.528085 -328.750896 1001.173210 135 114 132
189.417779 53.999180 918.139935 123 108 163
175.503469 -282.140136 998.425388 114 102 130
175.857079 -306.830716 999.600601 130 112 133
175.857079 -306.830716 999.600601 130 112 133
175.957930 -304.741120 1000.198174 106 84 113
175.957930 -304.741120 1000.198174 106 84 113
196.475530 151.755524 886.904144 53 42 88
196.475530 151.755524 886.904144 53 42 88
175.775814 -176.785684 995.403099 138 116 129
177.409518 -225.488448 996.003151 81 72 102
177.803910 -347.656226 1003.096485 138 120 144
178.283226 -310.249066 999.723911 128 111 132
188.813436 37.870529 932.249355 52 44 94
177.734196 -194.153392 994.463730 102 86 115
197.798252 156.752348 887.284660 89 77 127
178.534555 -252.500606 996.875858 136 113 124
178.734660 -323.635411 1001.058960 133 109 126
178.751075 -307.629704 1000.141335 100 84 111
200.810313 216.767120 873.696709 52 47 65
179.018509 -297.136140 1000.700855 92 75 107
179.205573 -249.601460 996.759605 79 58 75
178.623962 -178.988135 995.942211 80 63 91
179.851997 -329.893970 1002.885056 133 111 129
199.788058 101.186180 889.407063 108 89 143
199.806786 155.172503 886.392117 46 36 81
180.000639 -210.288262 995.400906 148 124 137
180.264151 -200.145745 995.411491 96 77 108
180.889606 -348.688364 1003.329277 102 80 102
200.350475 161.933184 886.597252 56 44 91
180.163312 -187.838376 996.426868 94 74 99
181.358004 -298.331761 1001.455021 97 82 109
180.686486 -113.160157 991.809940 141 120 146
181.671500 -250.040865 997.325802 139 118 128
181.354392 -256.741190 999.211502 85 64 88
181.160104 -184.131932 995.420074 139 114 129
193.366969 39.747459 929.687595 119 99 147
183.286393 -319.831491 999.692917 92 73 98
182.698739 -332.490492 1003.107834 75 54 77
193.318152 33.859393 932.298279 110 93 141
193.610442 18.706010 932.652855 120 101 148
183.390284 -328.889132 1001.268005 134 110 128
183.479786 -335.542393 1002.583027 120 108 128
182.710755 -176.024473 995.463943 133 113 129
183.191383 -198.362029 995.208836 100 78 109
202.616739 71.131843 894.272041 97 83 133
185.109568 -306.642056 1000.055504 83 65 93
184.900475 -280.590558 999.856091 64 56 82
184.932256 -296.786714 1001.025677 78 63 93
185.352325 -292.322350 999.806213 132 114 130
185.695720 -309.014606 1000.694084 118 103 121
185.513878 -249.973512 997.633076 138 116 132
186.055839 -311.051035 1000.090790 91 72 99
205.889797 192.617476 879.971695 115 93 131
197.166717 26.015463 930.957890 41 32 64
187.458408 -300.476646 1000.096703 98 79 104
187.827611 -332.374811 1001.794243 78 62 90
187.858999 -334.702802 1002.049828 116 103 129
198.208535 -42.189142 937.476730 22 22 36
187.936294 -238.104129 997.665310 138 116 141
188.843262 -322.160578 1001.315117 101 80 106
188.968790 -294.093013 1000.910664 90 67 85
188.264596 -173.991382 995.323563 133 114 128
188.814187 -134.879339 991.488075 140 121 143
189.038992 -177.634585 995.728302 93 77 107
194.087851 -30.911800 963.320255 59 54 92
208.514929 166.328096 886.434746 51 38 72
191.037750 -216.237020 996.814346 76 61 89
191.244757 -213.439035 996.367550 130 109 127
192.038333 -274.149776 998.976517 139 119 141
192.227936 -297.303271 1000.846863 86 71 98
192.051578 -293.279910 1001.325703 133 110 126
191.860461 -122.812641 990.543365 90 76 102
191.754115 -143.926442 993.382549 77 63 91
191.754115 -143.926442 993.382549 77 63 91
209.049034 -64.810795 910.775089 103 87 141
193.203688 -321.080256 1000.934219 135 116 134
208.788848 -63.553572 913.346100 99 83 135
193.564689 -194.402122 994.650269 133 112 132
212.203121 66.883320 893.124866 102 84 132
193.647552 -174.284613 995.096684 131 112 128
193.647552 -174.284613 995.096684 131 112 128
194.712377 -312.989855 1001.007080 98 82 111
194.647026 -234.126163 997.270679 108 90 120
212.231660 163.116860 887.643528 56 43 76
212.231660 163.116860 887.643528 56 43 76
195.208406 -190.211809 995.170021 90 75 104
195.107973 -218.861270 997.966671 139 118 142
196.057069 -315.764689 1001.734734 131 112 130
195.601439 -238.040137 998.095322 132 112 133
195.465744 -144.224799 991.479874 81 70 94
196.568322 -318.190694 1001.550293 95 77 104
196.568322 -318.190694 1001.550293 95 77 104
196.227646 -255.674744 999.758339 103 83 105
214.140439 87.991714 893.050003 58 45 81
197.498167 -296.195984 1000.452137 98 79 103
197.498167 -296.195984 1000.452137 98 79 103
215.071368 190.530765 882.886982 135 110 154
208.056498 -24.425526 933.594894 23 23 53
217.521906 219.616461 873.981476 91 78 111
199.418855 -279.351616 999.122715 122 103 121
198.685610 -220.093322 998.912334 103 83 101
198.685610 -220.093322 998.912334 103 83 101
218.541622 215.915465 873.027802 49 44 58
199.101198 -216.108656 998.064709 145 122 129
199.427259 -231.075144 997.884178 108 87 109
216.730571 90.955353 893.637657 66 51 87
199.550033 -175.840819 995.066643 127 113 131
199.503601 -113.164330 990.294361 78 64 106
199.355984 -142.384720 993.384743 133 107 123
199.696660 -116.039646 990.749168 122 110 142
199.735940 -145.335948 993.193340 89 71 84
200.318909 -197.384322 995.016479 101 80 107
200.514817 -170.943546 994.243526 134 115 132
200.435948 -173.441172 995.079231 83 63 86
200.435948 -173.441172 995.079231 83 63 86
202.149630 -194.613123 994.820309 134 115 134
202.608609 -330.496550 1003.774929 82 63 82
202.608609 -330.496550 1003.774929 82 63 82
202.676368 -295.497775 1001.670265 141 116 127
219.407058 70.066643 895.107269 47 35 64
219.426250 73.727596 895.069218 106 89 135
219.399285 97.369802 893.981361 63 52 84
203.260040 -172.771490 993.904877 96 75 92
203.260040 -172.771490 993.904877 96 75 92
203.260040 -172.771490 993.904877 96 75 92
204.007101 -240.452719 997.750759 130 111 128
205.022478 -294.920540 1000.589466 137 112 124
205.207610 -324.049711 1002.555370 134 112 135
204.084754 -147.535717 993.319702 76 59 71
204.084754 -147.535717 993.319702 76 59 71
204.084754 -147.535717 993.319702 76 59 71
205.165029 -272.168732 998.926735 136 117 139
204.536915 -217.413616 997.536182 90 77 113
204.536915 -217.413616 997.536182 90 77 113
221.703458 65.243208 893.177223 103 84 136
204.182577 -110.707009 990.758801 139 120 145
205.123329 -243.317008 997.676468 82 66 94
205.097055 -196.392870 994.445992 93 74 101
205.288291 -298.050380 1002.897358 73 51 71
206.538939 -327.588177 1001.901340 90 73 104
206.538939 -327.588177 1001.901340 90 73 104
205.710149 -214.778757 999.999619 131 112 130
223.737335 67.958260 893.505573 93 80 128
223.913741 192.749453 882.257748 102 80 127
207.429790 -172.373402 995.022392 137 116 139
208.041787 -227.776599 998.157120 126 109 134
224.481010 105.722880 892.406368 115 95 143
208.223343 -190.818000 995.869541 94 78 109
224.671173 91.178364 893.584442 47 39 74
210.134506 -208.614397 996.018314 83 67 97
210.134506 -208.614397 996.018314 83 67 97
226.476336 166.113770 886.835003 108 90 133
210.742760 -224.935317 997.271538 80 66 102
227.181363 71.480638 894.285011 50 43 56
211.840296 -239.716220 997.626019 131 114 133
228.079343 128.223825 888.400745 21 24 38
228.079343 128.223825 888.400745 21 24 38
212.330866 -259.005547 999.456692 94 74 92
228.465986 87.990123 893.775463 43 37 65
228.700018 171.172535 885.717964 41 34 55
228.700018 171.172535 885.717964 41 34 55
228.793645 84.643966 893.147564 102 85 136
228.801656 84.764308 893.576908 102 85 136
228.833199 65.509105 895.236969 99 82 130
213.095450 -116.023207 990.899754 122 109 140
214.315224 -243.887711 997.385025 82 69 94
214.970779 -277.016068 999.346447 76 62 90
214.970779 -277.016068 999.346447 76 62 90
214.727426 -223.637080 997.870159 116 102 127
215.442634 -280.230808 999.745083 121 102 121
214.877892 -113.187647 990.720272 67 54 80
232.908344 122.328699 882.785034 58 52 91
217.297840 -339.856386 1003.522301 96 80 109
217.009234 -308.764052 1002.422333 95 78 112
233.258986 222.034192 873.670292 62 54 72
232.152176 70.585322 894.394016 97 85 132
218.525839 -342.692256 1003.369141 131 117 138
217.602873 -221.314096 999.324036 78 68 105
217.486072 -115.467811 991.228676 116 105 136
219.327974 -333.898973 1004.203892 82 72 101
219.121766 -242.059779 998.309422 130 112 134
219.121766 -242.059779 998.309422 130 112 134
218.743348 -178.247452 995.441532 83 64 79
218.876600 -175.247014 996.378517 146 122 134
220.667553 -331.981897 1005.859947 133 110 126
221.475077 -245.646811 998.372173 87 72 99
222.062159 -224.959636 997.824097 89 75 108
222.140789 -202.277184 996.446037 102 77 99
222.404337 -204.587412 995.863724 135 113 134
222.707081 -118.140590 991.250229 123 110 136
223.669720 -231.411958 997.725677 86 76 108
223.669720 -231.411958 997.725677 86 76 108
223.535156 -184.987640 996.472454 136 114 131
224.823666 -244.453812 998.114872 84 69 95
224.684906 -204.174376 996.263885 96 74 99
226.541257 -275.219750 999.623299 130 111 127
225.333929 -108.871341 990.507126 107 84 112
227.576685 -277.977633 999.963474 77 58 82
227.638578 -241.107869 997.929287 136 116 136
227.293205 -140.682518 993.050289 129 108 129
229.270887 -256.509519 1000.133324 95 77 100
227.817869 -112.179673 994.612408 142 119 138
227.280784 -3.360013 988.584995 70 52 69
229.327512 -177.702093 997.143841 147 120 123
229.708362 -132.104230 992.191029 89 72 90
229.708362 -132.104230 992.191029 89 72 90
230.834365 -252.645516 999.280834 132 112 127
230.834365 -252.645516 999.280834 132 112 127
229.944396 -144.194102 993.723774 54 48 69
230.691338 -196.787572 995.148563 94 79 107
230.691338 -196.787572 995.148563 94 79 107
232.066703 -248.836493 997.694016 85 70 94
233.286190 -291.508198 1000.031948 137 112 128
230.400777 19.707619 984.989452 65 52 74
232.508278 -111.343372 992.115307 150 129 147
234.580731 -244.783902 998.997879 91 75 106
235.018826 -242.235041 997.389126 129 112 133
235.928392 -333.729601 1005.093002 99 78 97
234.834886 -181.303382 997.115803 75 60 77
235.594916 -220.506048 997.367764 90 76 110
235.594916 -220.506048 997.367764 90 76 110
236.497450 -336.436653 1006.027699 131 111 127
236.269522 -230.341220 998.455524 129 114 141
233.935428 23.744163 985.906506 127 108 119
233.935428 23.744163 985.906506 127 108 119
237.254143 -278.355384 1000.245476 83 67 92
239.034224 -296.902204 1004.536629 70 57 80
239.034224 -296.902204 1004.536629 70 57 80
239.605236 -292.536473 1000.878048 127 107 121
236.572051 -3.530865 987.740993 58 52 79
237.378645 26.194367 986.264896 79 65 90
240.752411 -241.861939 996.132469 130 114 136
239.233637 -45.503518 988.947392 71 52 65
238.531661 0.517511 987.985611 127 109 130
238.378882 45.150229 984.992313 75 59 83
240.183425 -33.330598 987.734604 125 107 128
243.358207 -306.281638 1001.770878 90 73 105
243.358207 -306.281638 1001.770878 90 73 105
240.187764 21.390776 986.956787 122 104 116
241.350579 -45.315364 989.231205 112 86 104
244.449925 -246.247602 998.005295 83 74 97
244.444561 -258.042192 999.641228 122 109 128
244.495964 -246.521187 999.299526 84 72 95
241.669559 50.978327 984.359264 127 106 121
245.316267 -293.464994 1002.160931 118 100 120
243.122244 -48.031017 989.583111 85 63 81
246.712923 -332.668138 1004.803753 79 64 93
244.666767 -110.679281 992.172146 135 114 135
243.292451 21.022527 986.885357 71 53 79
246.552014 -231.799340 998.392010 87 73 106
246.250272 -217.566657 1000.387383 85 65 94
244.927168 -6.711029 986.812401 79 69 101
244.753194 27.745929 984.862137 76 60 87
244.753194 27.745929 984.862137 76 60 87
247.765565 -208.043337 996.699905 96 75 103
245.840263 -0.974803 986.751747 120 102 122
245.668077 -3.825222 988.597107 75 60 80
250.171423 -327.455163 1001.414204 130 110 128
246.954083 -44.475612 989.044952 127 98 118
249.027443 -212.410498 996.261311 97 78 108
248.674417 -215.628219 999.832153 131 110 124
250.399137 -324.160337 1002.350521 97 77 102
249.486208 -225.685453 997.774315 123 108 137
247.434711 20.749460 984.728432 70 58 82
247.014689 52.563936 984.589863 141 120 131
248.596478 -82.384968 991.226864 120 104 128
250.670862 -244.174099 998.282337 88 74 100
250.750232 -296.096563 1003.950882 78 64 90
250.147319 -217.802811 999.109459 87 71 93
248.929882 -71.305150 989.597607 101 79 108
247.968769 46.686119 982.489777 70 57 79
251.322317 -278.270507 1001.556873 77 63 87
249.174404 -48.643288 988.672924 97 74 97
249.625945 -74.769324 989.136982 136 119 138
253.199458 -340.281415 1003.596592 83 70 102
250.120497 -51.008356 988.913155 137 113 132
248.884797 83.333796 983.415890 73 56 74
253.178716 -242.694950 1000.050068 134 116 139
250.728345 -4.774207 986.874866 81 68 97
253.570175 -220.034528 998.690224 118 104 135
254.679441 -308.769369 1002.889633 94 76 101
253.984737 -245.315576 999.841976 88 74 101
252.613187 -113.135064 992.694378 66 57 86
252.539921 -82.280600 990.751839 118 105 136
254.903507 -304.529953 1003.733540 125 105 129
252.264214 -34.639680 988.963699 137 116 132
252.456594 -26.212132 986.829472 71 64 95
252.722454 -40.290096 988.969898 72 60 81
255.518913 -294.770741 1003.656578 138 118 127
254.131103 -145.829582 994.892311 81 66 94
256.328201 -278.866410 1000.039005 73 61 82
257.038760 -331.906605 1004.276562 90 73 102
256.844735 -313.493252 1004.251575 128 107 124
251.565981 188.141060 976.281071 115 98 99
253.337455 20.704241 986.071968 87 70 93
253.668523 87.763530 981.370831 125 107 120
257.912850 -304.949379 1004.170227 78 58 81
255.527973 -62.601751 989.254951 90 74 101
254.282737 160.978770 971.174526 53 38 54
252.975965 172.456706 979.211235 44 34 50
257.833576 -224.677014 998.448944 110 100 130
253.403759 186.981618 976.272106 70 54 66
257.644343 -218.228221 1002.536964 47 38 55
258.973169 -255.286598 999.391747 131 110 128
259.497476 -312.187076 1004.027271 79 56 76
254.658890 141.053998 978.531837 116 94 105
257.264781 -102.291369 992.654419 129 108 130
255.678582 22.810380 987.683201 132 110 127
257.724619 -45.488098 988.147736 130 109 131
259.345150 -176.515126 996.228981 133 116 129
258.158422 -74.523604 991.606903 144 125 143
258.480763 -53.629619 988.306522 85 69 93
258.480763 -53.629619 988.306522 85 69 93
260.416245 -226.803422 999.253368 77 62 83
261.294460 -244.419193 999.186993 71 60 82
257.711864 64.776647 983.281136 135 116 130
260.964513 -224.095368 999.384212 66 56 69
261.949849 -275.494027 1000.603390 127 106 121
262.198734 -303.255534 1002.839851 84 64 87
262.974906 -325.983000 1002.958965 80 64 83
262.974906 -325.983000 1002.958965 80 64 83
263.049221 -329.021835 1002.928925 135 114 125
258.306336 79.346663 981.798649 118 105 135
261.865139 -220.410180 999.936867 70 62 69
261.865139 -220.410180 999.936867 70 62 69
258.786750 96.534067 981.814766 75 56 74
258.786750 96.534067 981.814766 75 56 74
259.351707 60.572100 982.875538 108 98 127
258.153224 165.658879 977.473736 100 81 97
258.153224 165.658879 977.473736 100 81 97
261.044741 -58.016157 988.516998 81 66 91
262.271500 -179.150808 996.948719 65 55 68
261.065030 -81.395763 992.598057 57 48 59
259.223270 93.910891 982.022285 111 93 115
260.054398 57.418174 982.578087 79 74 110
260.216546 23.051737 987.796116 130 108 125
264.933157 -317.122555 1003.393936 100 76 104
259.247899 169.816613 977.092075 43 33 48
261.388898 -5.617541 987.053013 81 70 101
262.775564 -109.933388 994.040489 127 104 122
260.937190 64.448535 983.502674 129 110 120
264.396214 -227.780032 999.476624 126 109 135
260.337353 126.921451 979.621887 79 67 97
260.337353 126.921451 979.621887 79 67 97
262.821531 -110.004044 994.891071 127 104 122
263.159108 -83.907151 990.257072 91 82 109
264.702415 -223.969436 999.469376 73 61 82
259.785247 178.021467 979.000664 128 100 109
262.101412 20.698163 987.611580 66 53 70
261.477947 86.585331 983.047676 132 109 120
262.267733 62.771463 983.555412 79 57 73
263.628435 -21.299438 987.448692 125 106 128
261.364007 167.694187 978.475189 87 69 88
263.560796 29.577899 984.610271 117 102 122
262.975693 60.636330 985.109615 105 94 120
264.430213 -33.233130 988.331699 139 114 133
266.883206 -244.940305 1000.389099 77 64 89
264.612699 -78.169781 993.704128 69 53 76
267.806506 -276.043415 1000.779247 136 112 127
266.106844 -155.694211 996.354485 123 105 120
262.543321 140.997863 980.281162 131 110 117
262.543321 140.997863 980.281162 131 110 117
265.557361 -82.178521 991.386223 59 46 71
266.472340 -177.255213 998.235321 135 117 124
266.483092 -174.607384 998.408890 104 81 91
267.486405 -222.480059 998.442173 113 100 122
265.756607 -49.389890 987.673187 130 110 131
264.785862 42.490044 984.265804 77 58 80
263.234448 154.328144 979.728508 69 54 71
265.729833 -40.076947 989.447403 104 91 114
264.794207 46.561491 984.692001 114 98 123
264.265323 92.286938 982.407665 47 33 50
268.629432 -252.415824 1000.314713 132 110 128
269.443297 -279.122925 1000.652218 70 57 75
266.121531 53.430635 977.978802 138 124 150
269.605327 -292.101455 1001.743793 136 116 134
269.889045 -301.528358 1001.673889 83 66 92
267.900348 -158.200765 996.305561 86 67 85
265.443301 62.837601 984.618187 84 60 74
264.181209 192.000639 975.982857 124 101 101
264.153528 187.187552 976.867390 75 64 74
265.052462 111.521816 981.616116 74 54 66
265.376878 94.980866 981.734276 122 102 110
266.403675 203.427410 961.384296 84 67 70
270.869875 -316.851807 1003.469753 101 79 108
270.869875 -316.851807 1003.469753 101 79 108
268.503809 -147.172749 998.768711 129 113 116
269.529152 -177.300978 998.243618 85 61 82
269.003963 -110.175979 993.240738 123 101 120
269.025373 -110.154557 993.605518 123 103 122
267.507148 48.219654 985.227871 86 67 87
268.114209 -5.552499 988.885021 94 72 93
268.728876 -32.845089 989.498997 97 70 88
267.124343 112.920272 981.853199 139 120 123
266.369176 178.755212 978.198624 126 92 101
268.322563 37.946442 984.977531 123 104 124
267.883277 83.894169 981.764412 106 93 112
272.161484 -247.350025 999.368000 118 102 123
268.595099 19.663790 987.268066 67 55 75
269.345045 -17.449167 987.334728 125 111 134
267.079496 146.965849 980.213261 138 115 122
267.079496 146.965849 980.213261 138 115 122
270.818067 -150.320137 997.298622 57 48 58
273.502588 -324.368119 1004.266262 141 120 138
271.690440 -155.666161 995.863819 118 102 126
268.843126 80.814904 982.306385 74 67 94
272.592974 -215.966845 998.544598 80 62 87
267.861509 144.900990 981.156921 88 62 77
268.799353 86.834925 983.101177 68 51 65
273.020124 -228.128624 998.409271 97 81 115
268.676710 107.170045 983.129978 85 65 80
274.194264 -297.973537 1002.238178 92 78 102
269.429421 63.102454 984.429359 140 117 125
269.429421 63.102454 984.429359 140 117 125
270.924330 -38.950324 988.676834 55 48 65
269.681549 77.218014 981.618118 120 107 137
269.166899 94.422764 982.841015 76 57 77
269.537067 51.536936 986.675072 137 116 126
268.525910 190.528250 975.790501 76 58 63
270.131183 44.127262 985.613537 119 101 112
274.369216 -275.268388 1002.483654 137 115 127
274.210811 -244.767499 1000.042057 70 55 83
269.044971 151.059043 979.768944 142 118 124
269.063807 146.888351 980.673027 91 64 79
269.674420 132.576847 978.476334 66 60 87
269.125915 140.258288 981.297207 82 64 73
269.165373 154.550791 979.102802 127 108 119
274.411559 -221.741104 999.652672 78 65 85
270.224619 110.683477 981.884003 139 119 123
270.224619 110.683477 981.884003 139 119 123
271.817398 -10.841369 988.421059 80 64 79
276.522899 -332.955575 1004.458332 127 113 138
270.078492 159.665430 978.975677 118 98 111
273.171568 -57.241893 990.017605 114 95 115
272.720122 -17.794742 988.189697 83 69 85
276.334572 -279.290581 1002.652836 67 53 72
271.613717 90.397978 983.370304 134 111 118
276.727080 -294.904160 1003.355026 95 74 95
272.256255 62.295711 984.652519 78 63 89
272.570968 46.474820 985.584736 76 61 82
272.012591 94.411218 982.637215 122 101 110
272.713256 50.854594 985.883141 101 79 96
272.713256 50.854594 985.883141 101 79 96
272.753048 26.990888 989.141273 88 76 105
275.191903 -145.693135 997.040367 118 96 103
273.049331 203.777099 960.902977 81 63 71
276.955748 -260.634613 1001.362324 83 66 80
276.797390 -242.097521 1001.306820 123 103 122
271.907640 158.494925 979.482651 75 59 80
271.666813 173.645020 979.520607 44 33 46
278.863478 -329.991794 1003.645325 89 70 90
273.334718 83.694154 983.158588 128 106 122
277.920675 -245.758533 999.781227 69 61 84
278.205895 -273.951435 1003.095722 93 70 82
273.255277 112.891924 982.158661 75 50 66
275.860715 -79.460776 992.009926 62 49 74
273.681235 86.617005 983.456421 71 53 63
273.089910 138.632536 980.792809 70 57 75
279.256296 -308.183479 1002.973652 91 69 96
278.456330 -270.350456 1004.236698 136 116 122
278.618550 -259.026575 1001.759434 119 103 109
278.618550 -259.026575 1001.759434 119 103 109
274.428177 80.876362 982.645226 92 73 96
274.428177 80.876362 982.645226 92 73 96
273.662162 143.481779 981.025219 90 71 88
276.177669 -35.900313 989.949608 125 104 122
279.752588 -282.961535 1000.929928 115 100 119
279.870296 -267.431426 1001.685524 99 80 94
280.823088 -318.114471 1002.947998 122 105 130
278.129697 -147.503805 997.591877 67 53 67
275.096965 109.361792 981.797504 68 50 71
275.141907 161.138976 977.457714 73 58 83
281.188583 -291.803813 1002.499771 137 117 129
280.726981 -221.725178 998.726368 57 41 64
277.157903 204.003906 960.323811 82 63 71
277.157903 204.003906 960.323811 82 63 71
281.421685 -257.242060 1001.835155 66 50 68
275.791264 141.130567 983.174515 136 115 123
282.206893 -296.076870 1002.785587 85 68 90
280.995917 -216.460919 999.642181 101 79 103
280.781317 -170.428813 995.836449 134 114 129
282.292366 -246.572566 1000.329304 66 57 80
283.282781 -301.379609 1001.504421 82 63 88
280.907249 -145.242548 996.917915 124 99 108
280.157304 -79.825675 992.675209 97 87 100
280.129147 -77.934784 994.061947 89 70 86
278.112721 95.767671 982.228565 144 124 142
279.607749 -3.156547 986.960888 138 121 135
281.973720 -177.003336 997.410583 140 118 127
282.187963 -180.517495 999.096107 84 68 79
281.008792 -82.154000 994.026089 69 58 77
284.150004 -280.623484 1002.607632 63 52 68
285.009933 -288.153744 998.435783 128 106 120
281.952500 -84.357297 992.382526 110 93 118
280.499864 20.049289 987.420273 65 52 72
282.977986 -147.211766 995.946217 60 46 62
279.916811 83.644927 984.228230 88 66 84
279.916811 83.644927 984.228230 88 66 84
280.921149 46.247673 985.249710 78 69 96
281.093884 56.471384 984.119320 127 116 139
279.120088 184.661758 979.494095 136 103 108
280.988264 91.159862 981.668186 88 75 103
285.225844 -222.046947 999.429226 64 49 73
281.858182 54.096502 983.486271 94 72 97
285.332584 -190.370429 998.610973 67 51 67
285.332584 -190.370429 998.610973 67 51 67
283.787513 -72.406644 992.478275 142 121 145
284.411883 -92.480034 992.412663 78 63 89
280.465698 177.734542 979.815960 108 90 99
280.465698 177.734542 979.815960 108 90 99
288.219571 -337.429929 1005.216312 85 72 83
288.219571 -337.429929 1005.216312 85 72 83
287.171483 -247.269106 999.026203 117 99 122
284.914255 -99.037743 992.827415 83 64 87
281.396651 190.183997 975.913048 98 73 77
288.404655 -303.352904 1001.821518 129 114 133
285.289049 -114.229453 995.646286 61 49 71
288.585305 -333.141851 1005.472755 131 109 122
283.127999 100.046015 980.619907 94 81 108
283.127999 100.046015 980.619907 94 81 108
286.816859 -185.180414 998.581886 80 66 83
285.033059 -39.753291 989.088917 80 59 81
288.061666 -257.063127 1001.284504 56 42 63
288.069010 -224.151397 999.120522 122 102 126
288.059378 -218.137240 999.681568 81 59 79
288.059378 -218.137240 999.681568 81 59 79
288.780212 -250.788665 1000.548172 77 63 87
284.129763 84.302056 983.135509 79 60 73
285.491419 -5.404589 988.189507 93 76 92
288.544679 -216.078806 999.366856 129 112 130
289.229035 -253.813744 1000.253201 131 112 125
284.446287 63.852900 985.569191 79 61 78
290.233922 -308.244228 1002.879429 129 110 132
289.059520 -213.423276 998.230171 131 113 130
285.689759 63.103777 981.789303 69 56 74
284.028196 140.425742 982.367134 61 45 62
286.955523 -56.259912 991.974640 123 103 121
290.990639 -330.228066 1005.774784 140 117 124
285.280156 81.909299 982.721233 117 96 113
285.817766 50.048995 984.742546 126 107 124
284.322882 168.870258 977.810669 84 70 99
284.322882 168.870258 977.810669 84 70 99
285.790372 68.357098 984.604263 89 66 80
286.274600 45.004889 984.767914 118 105 126
288.191938 -66.088599 991.136074 129 108 130
288.205385 -61.288351 990.507793 129 113 134
288.365436 -80.976456 993.895721 86 76 90
287.191606 18.083045 987.565994 77 58 80
287.502670 55.719078 983.806705 85 69 94
289.117289 -45.993778 990.916729 79 55 70
293.253446 -307.129812 1002.628231 136 120 138
288.510370 10.640097 987.081432 129 109 128
287.174273 109.195483 981.320477 118 106 130
287.080050 113.489234 981.929302 124 101 109
289.391255 -58.309591 993.444061 71 53 69
289.667463 -50.074220 991.635418 66 47 62
288.617992 38.062328 985.829258 123 107 127
287.613010 120.375860 980.514908 135 115 131
287.235117 158.890736 977.266121 79 59 77
288.371825 82.919121 982.154274 77 57 72
288.371825 82.919121 982.154274 77 57 72
288.234782 87.859577 983.071709 125 106 122
286.858940 186.174333 978.384686 130 97 102
288.679934 63.114691 985.945606 79 62 74
293.108177 -222.206926 1000.900745 69 57 82
289.025903 69.260299 985.499287 130 110 116
289.025903 69.260299 985.499287 130 110 116
293.167090 -182.844412 998.027897 105 93 121
293.433809 -185.326385 996.359825 79 68 106
290.648890 -3.847095 988.071346 128 112 129
291.349268 -40.065768 991.977215 106 79 97
293.647194 -177.049649 997.500038 132 110 130
289.898038 79.151380 984.731960 147 127 132
289.898038 79.151380 984.731960 147 127 132
294.984341 -256.171846 1001.848030 65 55 69
295.298648 -259.766102 1001.431274 122 104 125
294.713664 -217.677999 1000.360012 135 117 134
291.337395 34.103993 984.629726 74 64 91
288.846064 182.684350 980.059814 52 43 58
290.375614 118.720376 980.667210 83 62 86
293.001699 -81.172252 994.440556 41 37 53
293.001699 -81.172252 994.440556 41 37 53
297.034526 -303.073049 1001.983356 123 106 130
289.638162 177.746212 980.823421 138 116 122
289.638162 177.746212 980.823421 138 116 122
292.170048 19.546166 988.418102 125 103 114
290.233397 189.272869 977.791119 88 74 96
290.953588 138.994837 981.556320 85 63 78
292.725372 17.225689 988.527107 75 60 78
294.826818 -76.835477 990.157986 114 95 117
297.377634 -250.027037 1001.077652 128 109 127
292.446136 110.729241 979.257965 65 54 72
294.915915 -56.938237 989.473343 126 108 130
293.397307 37.939522 985.300636 121 101 120
297.302651 -223.263884 999.527359 79 65 91
292.578793 84.494245 984.608746 67 46 57
291.674471 162.980151 978.528404 113 93 117
291.674471 162.980151 978.528404 113 93 117
294.065070 28.082475 985.294533 128 117 143
298.081803 -244.080544 1001.189232 82 64 88
298.571110 -271.121049 1002.339458 93 71 100
298.571110 -271.121049 1002.339458 93 71 100
292.300630 143.125141 981.075287 135 104 120
299.193287 -289.318705 1001.790524 125 100 114
293.406439 86.904228 982.890224 126 106 124
299.771285 -306.291986 1002.955151 81 60 89
294.759321 26.175839 985.287857 97 83 111
295.011330 56.176233 981.161976 127 108 126
294.794726 47.470167 985.064602 100 86 104
295.574117 -3.731946 988.875675 134 109 121
297.223973 -110.625303 994.973946 131 106 126
294.236302 79.066473 985.987949 52 45 64
294.236302 79.066473 985.987949 52 45 64
299.902701 -253.659177 1001.715851 85 67 85
296.537423 -39.663807 991.514397 88 68 85
299.896479 -232.629037 999.323273 93 75 108
295.129514 75.925124 983.876419 110 99 128
296.004081 16.171418 987.694168 81 62 78
301.774240 -309.379745 1002.724171 128 110 130
302.446008 -336.564565 1005.068493 117 98 117
302.332473 -333.220696 1006.120396 72 59 78
295.182538 138.211775 982.924175 81 64 79
303.343439 -345.660305 1005.089951 90 70 90
300.599384 -179.310679 998.210526 60 42 61
301.684380 -239.153028 1000.030708 106 84 108
297.738218 6.807426 988.887882 138 118 135
297.738218 6.807426 988.887882 138 118 135
296.531749 119.778419 981.066418 92 65 84
302.510428 -243.368196 1001.752472 140 122 134
298.803830 36.783201 985.724163 131 112 128
297.522354 114.538229 982.874203 130 108 116
300.878525 -76.544482 990.795708 118 98 121
300.516248 -44.535628 990.207195 105 86 108
297.445750 160.199451 978.635693 89 67 85
302.165389 -143.337500 995.565128 122 102 119
298.288798 112.670314 982.580662 90 71 85
298.288798 112.670314 982.580662 90 71 85
297.472548 170.270848 979.286957 116 94 118
302.228832 -112.747061 994.584465 124 100 115
304.315615 -237.047267 999.936581 107 84 114
300.623369 -1.567346 988.533592 136 122 128
302.514768 -102.336955 992.303467 90 68 93
302.509928 -117.427194 995.404911 57 47 59
304.956007 -256.866455 1002.217484 45 31 45
301.271009 -5.382418 988.215542 125 108 126
301.109362 12.247836 987.796688 70 53 64
304.310822 -182.442033 997.074413 67 56 85
306.120777 -288.276339 1002.784920 88 72 85
299.309063 133.900261 982.551956 146 124 129
299.309063 133.900261 982.551956 146 124 129
304.584908 -179.510117 998.107529 130 109 117
304.111314 -149.929154 997.058582 114 98 116
303.387213 -83.952916 993.605042 118 97 120
305.992150 -245.414472 1002.085781 64 47 72
306.248093 -242.892075 1002.228642 135 113 129
299.880266 185.033023 978.525257 70 56 76
302.540922 20.928632 989.123249 145 124 129
302.787232 29.950997 985.608101 123 114 138
303.328133 -3.144170 988.617611 79 62 77
307.595062 -279.208565 1004.509354 79 59 84
303.162575 32.393232 983.421898 76 68 92
300.663424 171.187019 979.216957 118 97 118
308.634806 -334.110713 1006.901646 82 68 81
305.682087 -130.469334 994.738388 75 62 80
305.766416 -126.069403 994.656754 76 59 73
301.770830 126.985168 982.190514 102 76 97
301.711392 132.638991 981.976032 94 73 90
307.530284 -221.877193 999.644756 71 59 78
301.700020 137.233281 981.619930 91 72 86
308.764338 -264.569592 998.879623 143 118 132
307.557392 -217.270136 1000.670528 138 121 140
305.890989 -91.726089 991.458416 83 64 87
304.171276 12.735946 987.216282 121 107 130
309.661031 -328.111839 1005.735207 134 107 118
301.821995 187.486923 975.083160 116 102 122
301.539302 188.088095 977.587986 116 102 122
308.893609 -252.783561 999.725533 120 99 122
302.944183 113.056445 982.500172 122 98 106
309.996057 -290.512443 999.147987 126 106 129
307.031417 -146.064913 997.737789 47 41 60
307.031417 -146.064913 997.737789 47 41 60
304.525828 34.993139 985.223007 124 109 130
302.067590 187.862802 977.627182 116 100 122
303.429341 120.563388 981.728745 98 73 89
310.859227 -317.875886 1003.096104 84 60 86
303.245640 140.543914 983.268452 93 67 79
306.737065 -45.874223 989.244080 128 118 136
307.719159 -113.209355 993.982124 73 56 79
308.767653 -178.694570 997.645950 83 57 73
309.311628 -196.420527 997.367096 101 83 109
309.311628 -196.420527 997.367096 101 83 109
310.689163 -257.887745 1000.428200 62 50 71
309.476757 -186.100209 997.300625 139 119 134
307.010102 -39.541966 991.402245 121 102 119
306.618643 -5.840774 988.983345 133 113 128
309.629917 -182.828403 998.069954 73 61 85
309.701705 -180.623949 998.759842 122 102 114
311.933088 -304.049611 1003.649902 88 68 92
306.810546 17.210892 987.414455 123 111 132
309.501719 -143.002295 996.512127 115 96 114
304.729509 187.720335 976.574993 126 107 131
304.729509 187.720335 976.574993 126 107 131
312.591791 -296.491551 1003.176022 84 67 77
309.101939 -68.760830 990.903664 82 64 91
309.101939 -68.760830 990.903664 82 64 91
313.418388 -287.109709 1001.989841 91 75 105
313.418388 -287.109709 1001.989841 91 75 105
311.500788 -156.222999 995.748615 130 110 130
308.408070 73.664713 981.225491 183 83 41
306.915092 185.407472 976.671314 84 72 103
310.418320 -41.589841 991.559792 80 67 84
310.950375 -58.613563 990.000343 96 80 93
309.653878 22.936964 985.931683 140 122 141
311.870813 -112.465644 994.283390 85 68 95
308.068275 117.812145 982.115078 154 128 141
308.068275 117.812145 982.115078 154 128 141
310.980797 -47.360510 992.123604 120 101 116
311.051130 -38.941744 991.558361 133 115 125
314.680099 -255.358458 1002.787685 126 104 120
307.848716 171.104479 978.313255 113 93 113
315.920854 -295.313501 1003.656101 74 57 76
309.484601 125.344741 980.609894 125 106 125
312.611341 -69.484526 992.315769 93 75 91
311.511564 -4.772628 989.679718 76 56 74
316.733503 -297.290063 1002.425003 118 105 124
313.998485 -146.228266 997.106552 83 68 94
313.998485 -146.228266 997.106552 83 68 94
315.412331 -182.127380 997.522926 67 53 77
315.412331 -182.127380 997.522926 67 53 77
317.353559 -293.009663 1002.622414 126 105 130
311.927056 43.318230 984.655952 126 106 127
310.597324 123.286200 981.036282 75 61 86
312.747478 -2.201070 987.606907 138 122 139
318.654466 -345.609951 1005.312538 87 65 88
319.013977 -343.381238 1006.859112 123 99 113
315.261292 -74.645627 991.245079 124 107 124
315.208149 -78.778851 993.101978 47 41 61
313.507915 27.145153 986.863804 92 83 114
313.507915 27.145153 986.863804 92 83 114
317.709255 -179.925060 998.114395 115 95 114
319.241023 -260.903502 1001.171017 80 62 91
312.740016 126.254237 980.225372 81 67 89
315.043950 -4.525333 988.639355 78 59 78
320.536089 -304.971480 1003.076363 92 75 106
319.965482 -265.854454 1000.540924 125 104 123
319.923449 -251.655889 1001.096630 116 97 120
320.437050 -279.993486 1002.378082 62 52 81
319.491434 -215.136433 1001.106262 127 113 137
314.041519 116.862416 981.438255 150 126 135
315.615058 30.703357 985.624409 93 81 111
314.852929 106.731832 982.898521 83 76 101
314.302301 148.361731 979.426384 94 79 107
319.816351 -182.507503 999.713993 66 53 70
318.716264 -91.373032 992.739296 120 100 120
318.716264 -91.373032 992.739296 120 100 120
315.133667 207.554197 960.460091 92 80 88
320.727015 -217.676425 1002.537346 136 118 133
315.909696 85.249531 984.430695 117 99 117
315.760183 102.083600 982.007027 122 108 132
315.581131 110.959315 982.182026 126 111 135
317.928267 -41.221550 993.569756 80 65 81
319.275999 -93.705887 992.380238 84 66 95
319.275999 -93.705887 992.380238 84 66 95
321.274543 -219.997525 1002.696228 73 48 60
314.675188 184.006989 977.677727 98 81 116
315.607834 141.066468 981.890297 82 69 90
323.393822 -240.871191 1000.518131 145 121 135
319.204712 -5.810918 990.689659 123 105 116
316.634774 160.715175 978.725719 90 69 92
316.641641 167.625737 979.000473 126 108 126
317.612147 117.758548 981.721497 149 125 140
316.507387 189.161825 976.665401 93 77 105
325.298619 -280.962467 1002.018070 117 106 130
323.157239 -177.409279 1000.243950 131 110 114
323.646426 -182.340705 998.149014 60 51 65
321.206355 -42.228544 991.592979 117 102 127
325.313807 -252.522659 1000.008011 118 98 111
325.201201 -250.468946 1001.356316 88 68 87
325.201201 -250.468946 1001.356316 88 68 87
320.549250 20.650390 988.078308 69 58 81
321.824932 -37.520388 990.583706 120 102 125
319.174075 113.993835 982.347298 65 52 68
318.596005 141.515934 982.518864 84 68 83
325.745869 -243.903565 1002.032566 60 43 58
318.410158 174.258387 979.212570 55 41 59
318.410158 174.258387 979.212570 55 41 59
323.927808 -147.343874 999.203300 62 51 68
321.120977 34.210837 986.188889 128 112 132
322.083759 -18.546905 989.394855 80 64 91
321.951818 -4.574171 989.949799 85 66 88
319.905066 123.392570 981.407452 93 80 103
319.505572 149.740875 979.532528 129 114 137
319.505572 149.740875 979.532528 129 114 137
320.868850 80.555141 982.988453 58 55 80
320.868850 80.555141 982.988453 58 55 80
326.548529 -222.872686 1001.137829 123 104 123
326.548529 -222.872686 1001.137829 123 104 123
320.368814 146.751297 979.025078 98 83 109
325.034261 -78.457928 993.537807 48 43 64
321.860600 116.971886 981.743145 152 128 141
326.911163 -165.207434 997.048855 125 104 122
328.805804 -246.763444 1000.534248 116 102 117
324.512601 -8.692116 989.169884 68 57 79
326.323652 -84.613335 991.085815 115 95 118
324.221587 35.766268 985.637665 81 61 82
324.401593 31.374252 985.786343 88 69 88
330.310917 -292.673540 1004.537487 128 107 130
323.113751 113.817179 982.894325 74 56 72
324.664593 55.892330 982.015896 208 110 72
324.379539 75.770849 980.720043 207 114 76
324.612737 63.915414 981.443214 210 113 75
327.472401 -108.227837 995.173168 86 67 85
330.671382 -280.144215 1004.424381 67 55 72
324.137688 93.877935 983.033085 129 115 137
325.010157 61.172581 981.495667 207 115 79
330.479622 -245.456862 1000.168896 73 56 71
329.055977 -147.368169 992.011738 82 69 71
325.422621 54.227716 981.841469 173 85 72
326.782823 -37.522691 990.739250 131 113 133
326.782823 -37.522691 990.739250 131 113 133
331.431103 -283.089733 1002.838135 127 111 137
331.605840 -295.590067 1004.146290 53 40 46
331.166172 -259.646606 1001.383686 122 101 124
331.166172 -259.646606 1001.383686 122 101 124
332.034278 -306.673098 1003.876686 90 75 103
327.035546 -35.133347 990.511417 78 65 88
