ply
        format ascii 1.0
        element vertex 25577
        property float x
        property float y
        property float z
        property uchar blue
        property uchar green
        property uchar red
        end_header
-405.968571 30.137691 1585.921097 104 90 111
-410.682392 322.505212 1543.946457 119 107 115
-406.650972 -12.941308 1590.173149 101 78 94
-403.843927 40.721387 1586.342716 125 102 117
-416.234255 332.415819 1536.660767 50 43 41
-409.272718 320.773959 1545.076752 88 69 73
-404.992867 220.772719 1561.821175 123 99 108
-405.204916 183.454537 1565.937042 118 93 99
-404.025459 223.679137 1561.958218 79 63 72
-414.188528 330.521798 1537.884903 94 90 97
-406.161404 -55.311620 1594.596291 126 98 118
-405.481720 -17.839357 1590.340137 126 103 123
-404.601574 170.801055 1567.576599 85 57 66
-404.841137 166.175687 1567.831802 67 42 45
-405.081940 -16.169046 1590.102482 138 116 130
-402.961349 135.355926 1573.211765 110 91 104
-403.449488 296.191335 1552.364159 98 86 104
-402.746868 285.788846 1553.997707 91 78 92
-403.775978 140.495515 1570.970917 107 90 102
-402.813196 226.101518 1561.108685 125 105 117
-403.069401 257.298183 1556.448364 116 97 110
-404.795694 -63.203901 1594.690132 122 96 114
-401.132965 198.889124 1565.184689 111 90 91
-402.236414 272.333598 1554.693985 81 63 72
-402.236414 272.333598 1554.693985 81 63 72
-404.819012 -127.574456 1602.100182 121 97 114
-401.992941 254.738021 1557.052040 62 47 51
-401.798868 109.515464 1575.395203 77 58 73
-401.723719 178.927314 1565.495682 106 83 89
-402.198362 -10.456745 1587.992477 139 114 130
-401.644564 222.564292 1559.357929 76 59 68
-400.674152 315.221286 1548.131752 57 45 44
-402.135324 66.463089 1577.594471 119 100 119
-403.438139 -133.890271 1601.297569 102 92 105
-400.636387 121.432221 1571.546268 51 41 53
-400.280142 102.125967 1574.255276 113 95 108
-401.891422 -2.648985 1585.505676 123 103 123
-398.918676 107.025862 1574.366188 120 98 106
-398.408628 196.476042 1563.622570 46 36 37
-403.465176 -147.921944 1601.443672 88 75 99
-403.465176 -147.921944 1601.443672 88 75 99
-398.904753 174.418783 1564.710426 52 39 44
-402.280426 -115.581059 1597.301102 82 58 73
-401.226473 1.128011 1583.760071 125 105 125
-400.741482 -130.894518 1600.528526 74 52 64
-401.802397 -60.722303 1590.528202 118 98 114
-401.280880 -92.494285 1595.011902 49 37 40
-399.860597 230.428815 1555.049706 127 102 114
-401.039314 -6.374852 1583.417225 99 77 101
-401.007223 -97.235268 1594.204140 125 94 103
-400.726366 -1.270457 1582.308102 88 69 90
-400.726366 -1.270457 1582.308102 88 69 90
-397.827268 312.198663 1545.860100 59 53 67
-410.727882 339.375734 1529.157829 86 73 87
-398.131704 274.160457 1549.898148 74 54 64
-398.087811 125.360417 1568.501472 97 82 99
-401.029444 -122.707391 1596.329784 123 98 116
-398.440433 31.367186 1579.499626 71 59 75
-400.264120 -27.719721 1584.858799 126 98 119
-400.281382 -28.535321 1584.894466 128 101 122
-397.336864 262.560129 1551.310062 115 97 114
-397.336864 262.560129 1551.310062 115 97 114
-397.321725 102.655566 1571.103096 65 51 59
-401.123714 318.449879 1540.145969 107 97 110
-398.176050 -19.491260 1585.112000 133 109 128
-397.780895 73.303795 1573.667622 78 67 85
-395.626307 177.138543 1561.942768 119 99 113
-398.211336 -129.201746 1597.497082 124 99 111
-396.771932 254.623485 1550.983524 69 53 62
-397.638273 252.659988 1549.964809 109 89 91
-395.537734 158.530796 1563.724041 110 88 94
-394.975352 102.884972 1570.621300 76 58 71
-396.053314 222.862601 1554.491043 74 57 61
-396.165466 188.360298 1558.605194 106 91 108
-396.187806 11.722639 1580.555630 110 94 102
-396.997857 196.113765 1556.680679 51 43 50
-396.626067 -12.435868 1582.995796 119 100 111
-395.168114 156.877863 1563.109970 55 39 51
-396.415758 1.914997 1580.918789 123 102 112
-398.286152 -114.726341 1593.485737 91 66 84
-397.385025 -97.136110 1591.877556 71 49 58
-397.513747 -100.587404 1592.141914 70 51 64
-394.277382 289.589453 1546.628380 47 40 50
-396.095777 128.504753 1564.842415 48 39 49
-397.003675 -71.988320 1588.808060 135 115 130
-396.093988 -88.691235 1591.540337 131 105 123
-395.232391 229.093480 1552.504730 120 98 111
-394.851303 315.590358 1542.005920 58 45 44
-396.012068 95.284426 1568.218517 129 105 118
-394.202447 293.430638 1545.313358 102 88 107
-396.273899 -22.946192 1582.634354 66 52 66
-397.293544 316.947222 1538.478756 103 95 102
-394.977760 -19.409357 1582.732487 67 44 56
-394.198275 -8.402629 1581.093121 67 49 65
-396.465564 -140.127146 1595.164013 78 66 82
-393.965006 31.176504 1576.169777 64 48 61
-395.208812 98.628902 1566.382885 81 67 84
-394.677949 247.986579 1548.146439 115 90 97
-394.514775 237.867904 1549.564075 123 98 111
-394.514775 237.867904 1549.564075 123 98 111
-394.376779 194.796932 1554.957104 99 86 97
-394.280219 -0.521087 1579.402828 55 40 50
-393.248701 256.153417 1548.232365 116 94 104
-393.190789 253.525710 1548.610973 48 34 37
-393.748450 58.569229 1572.271347 53 45 59
-393.110681 11.723913 1578.504086 39 27 36
-396.010804 -138.171685 1593.935204 114 98 112
-392.171073 156.323719 1560.745621 60 47 63
-393.387270 -17.647062 1580.235004 124 98 119
-393.174386 268.368173 1544.614029 113 92 101
-392.445397 -80.229783 1588.689995 112 90 106
-393.730426 33.484656 1572.572231 128 104 116
-391.515779 128.777611 1562.437916 46 39 50
-392.866755 -10.960969 1578.479481 123 96 118
-393.728876 -95.309472 1588.066959 115 93 97
-392.615056 8.215129 1575.741291 112 92 109
-392.928934 75.757241 1566.957760 88 74 91
-391.806364 313.558364 1538.275242 50 42 38
-392.652178 -3.571827 1576.127720 121 100 121
-392.787576 -19.062948 1577.899170 125 97 117
-392.194676 73.837912 1566.826439 129 109 126
-390.316820 255.004525 1545.641041 122 101 109
-390.931630 115.031266 1562.419415 128 112 133
-392.067456 51.010656 1569.163513 82 65 83
-392.045617 -93.047827 1586.868572 57 43 56
-390.176868 103.840733 1563.727283 124 107 122
-393.223906 -89.503700 1584.725952 128 109 125
-392.511535 -54.544145 1581.045914 122 97 122
-392.060709 -135.577106 1591.393185 116 98 113
-389.722872 100.326824 1563.977528 81 68 91
-390.815473 178.003049 1552.994728 76 57 69
-390.734386 76.107323 1565.476990 91 72 89
-389.996433 106.680226 1562.248898 64 57 79
-389.712000 246.762013 1544.978523 108 93 117
-388.872814 225.549364 1547.601795 120 96 106
-390.780139 -10.494409 1574.861336 92 74 102
-390.891623 -64.244056 1581.259251 120 98 115
-388.245988 14.267977 1573.639774 116 93 111
-399.807692 328.324223 1522.728634 85 81 89
-388.132119 283.254147 1539.833927 105 86 102
-388.132119 283.254147 1539.833927 105 86 102
-388.562655 314.881968 1535.454750 62 50 52
-390.160751 2.700823 1572.680473 119 97 116
-388.884282 67.256856 1565.667439 74 59 70
-390.279031 -134.500813 1588.785362 109 92 104
-388.660455 29.132840 1569.964600 49 39 52
-388.024473 277.188039 1538.701534 55 42 51
-389.575076 -34.527159 1575.905991 91 68 90
-387.466049 72.463685 1564.552116 123 99 113
-387.227654 293.797946 1536.764336 106 90 107
-387.056994 98.115206 1561.184883 128 106 121
-387.712574 220.371413 1545.025063 108 92 105
-385.912848 104.250634 1560.716915 125 107 119
-385.284138 199.650383 1549.389362 113 93 103
-388.153625 178.042150 1549.004459 75 58 76
-387.989450 -29.395977 1574.768543 131 105 125
-386.031699 94.899404 1561.221981 120 103 115
-387.710547 63.467962 1563.448524 111 85 92
-387.312412 32.166302 1567.381001 134 109 122
-385.617495 101.654410 1560.395527 90 66 74
-385.347795 130.928671 1556.614494 110 89 94
-386.009073 222.541475 1544.541740 69 55 60
-386.009073 222.541475 1544.541740 69 55 60
-386.775661 56.731087 1564.368343 51 40 51
-386.693430 67.459017 1562.724304 106 89 94
-385.881639 175.836062 1549.534702 117 100 120
-384.034824 161.373568 1552.495003 85 65 79
-387.916827 -27.897191 1571.437073 131 104 121
-385.406899 59.869355 1562.922859 65 49 59
-385.198092 171.720493 1548.912430 70 58 83
-385.193920 70.167351 1561.305904 53 40 47
-385.281992 64.808911 1561.812115 52 34 39
-385.281992 64.808911 1561.812115 52 34 39
-384.408784 92.983931 1558.950329 54 45 56
-384.408784 92.983931 1558.950329 54 45 56
-386.539030 -59.136683 1575.429916 115 94 117
-385.505986 -136.327708 1585.738754 66 58 76
-386.793423 -142.039120 1585.016060 118 98 118
-396.003675 330.622482 1517.273903 45 40 40
-384.990358 57.624763 1561.677837 111 91 108
-385.578346 -89.862907 1579.253292 130 105 116
-385.875106 -94.998384 1579.446697 50 42 48
-385.224986 -65.174192 1575.688362 118 95 116
-384.258509 137.417805 1551.140594 95 87 93
-384.258509 137.417805 1551.140594 95 87 93
-383.590412 88.557810 1557.096863 132 113 133
-382.611179 98.563850 1555.815601 95 87 99
-383.796072 -99.838537 1578.975201 108 90 105
-382.798576 92.347640 1555.634308 121 104 124
-382.847571 215.226936 1539.138985 107 86 99
-380.915332 223.841476 1539.734459 107 87 94
-379.520416 196.448720 1544.460678 51 41 47
-382.773042 -66.974121 1573.873043 74 50 60
-380.310988 157.593775 1548.359489 66 49 62
-382.743359 -137.245035 1582.203674 105 91 116
-382.741904 -23.580462 1568.020248 133 113 131
-381.515670 200.034523 1541.453075 107 89 104
-381.639838 -91.282225 1577.247524 50 33 38
-382.130289 -77.091223 1575.006104 75 56 71
-381.585026 -133.000064 1582.275486 72 56 74
-380.598450 101.036572 1554.084873 47 41 52
-380.598450 101.036572 1554.084873 47 41 52
-381.339717 134.590709 1549.186897 69 49 47
-382.406831 -85.346955 1574.958038 75 57 66
-381.666660 -94.044828 1576.634407 109 84 100
-381.666660 -94.044828 1576.634407 109 84 100
-382.740569 -150.536144 1582.287598 108 91 118
-379.844952 292.007661 1530.218887 117 94 102
-381.628251 -139.139712 1581.430340 64 51 71
-381.432724 -59.271610 1571.347332 132 105 126
-381.058311 35.965389 1559.715843 126 110 132
-381.494498 79.067379 1553.896999 124 100 111
-381.593990 316.338682 1524.294472 104 94 106
-379.499459 225.374246 1537.461758 79 55 62
-381.157160 -44.140953 1568.398094 124 97 123
-380.998039 163.783062 1542.743111 114 94 109
-379.760456 133.683228 1547.505188 73 54 55
-378.634572 130.176258 1548.827839 110 87 95
-385.300398 320.091343 1518.679714 110 96 107
-379.709029 -90.852219 1574.788761 122 102 117
-379.495430 -93.211156 1575.081348 88 59 76
-380.212831 9.493399 1561.342430 103 90 111
-379.194570 136.107635 1546.531296 111 93 102
-379.194570 136.107635 1546.531296 111 93 102
-380.548358 16.503167 1559.862518 121 98 117
-390.295434 331.477094 1510.898399 38 33 31
-390.295434 331.477094 1510.898399 38 33 31
-377.643681 151.850760 1544.756031 99 81 89
-377.397943 157.414961 1544.122124 54 39 53
-377.397943 157.414961 1544.122124 54 39 53
-378.730845 -63.043553 1569.753075 51 38 44
-378.730845 -63.043553 1569.753075 51 38 44
-376.197553 252.132416 1533.042431 110 94 104
-378.479290 73.357570 1552.955723 100 83 98
-376.373506 170.528328 1542.860985 45 39 50
-376.373506 170.528328 1542.860985 45 39 50
-377.682638 293.227530 1525.999641 99 88 105
-377.682638 293.227530 1525.999641 99 88 105
-378.881788 -91.630948 1572.427750 127 100 117
-379.005718 -85.646504 1571.205521 88 68 91
-375.167584 271.365094 1530.229187 67 52 65
-375.808287 220.679474 1535.720634 47 37 45
-377.549005 78.493702 1551.389217 123 101 118
-378.137136 -60.100055 1567.556190 124 96 112
-376.616931 150.885749 1542.901421 100 80 91
-377.628589 11.422164 1559.155273 46 41 49
-376.508617 217.943358 1534.301567 90 72 85
-376.002121 89.043468 1550.475502 106 93 122
-376.002121 89.043468 1550.475502 106 93 122
-376.778316 -135.063422 1577.084732 78 65 86
-374.549317 153.147852 1543.516827 54 42 55
-374.237704 129.886639 1546.560001 104 86 93
-388.161635 327.213573 1508.760452 91 83 86
-373.525333 263.913345 1530.157471 58 39 46
-376.279879 82.901084 1549.589825 81 67 91
-374.624443 223.051763 1533.282661 109 87 99
-375.500417 126.334858 1543.898106 50 37 49
-374.964595 15.162243 1557.668018 120 95 111
-374.358010 104.714656 1546.821213 117 94 107
-374.411154 75.171745 1550.402164 53 40 56
-375.550699 111.674213 1544.709110 116 103 126
-373.643255 157.433927 1540.791321 123 100 107
-376.389146 -83.537650 1567.921352 80 63 81
-374.340129 86.256242 1548.325062 81 61 82
-374.549270 -98.106664 1570.387173 56 41 50
-374.037743 54.091537 1551.623631 105 90 108
-371.978688 250.340605 1529.129982 45 36 49
-375.487280 -117.467856 1571.048260 118 99 116
-373.171449 128.447998 1542.762184 101 82 93
-375.472832 -111.534548 1569.933033 123 104 113
-375.145674 -24.448232 1559.479523 129 107 121
-372.962356 143.350410 1540.769672 26 22 29
-372.962356 143.350410 1540.769672 26 22 29
-374.767447 -102.987742 1568.619156 112 93 110
-374.223661 -71.633524 1565.110016 75 60 82
-373.313498 -67.540139 1565.452385 115 96 115
-372.927117 73.483241 1547.933197 94 82 97
-371.257329 100.747383 1545.999241 56 45 52
-373.192358 -49.501348 1562.612247 83 65 88
-371.331525 155.027544 1538.888931 54 44 56
-374.103761 -132.784677 1571.569347 74 56 68
-374.103761 -132.784677 1571.569347 74 56 68
-371.882463 55.815798 1550.204086 68 53 65
-374.126911 -122.516751 1569.962406 64 48 60
-372.468781 30.034336 1552.481270 131 112 126
-370.652819 193.488741 1533.845425 43 34 45
-373.586988 -118.959987 1569.480228 65 52 68
-370.409203 290.580511 1521.702194 110 88 92
-371.943188 139.292967 1538.809299 89 76 98
-370.961809 157.510722 1537.238026 123 100 108
-373.053312 58.439904 1547.401237 124 106 120
-373.250031 -107.472801 1567.575359 74 55 67
-370.415425 286.961985 1521.345711 48 40 50
-370.035863 26.128793 1553.794289 60 49 60
-368.867683 251.454139 1526.865578 106 88 102
-370.223236 197.787595 1532.147217 50 38 48
-372.070122 8.681932 1553.620434 93 83 102
-370.861626 17.952278 1553.569508 118 99 117
-369.312406 219.128633 1530.021000 54 46 54
-371.749902 -45.062792 1560.260105 131 106 127
-370.343852 74.603641 1546.572399 61 49 63
-369.176412 128.850651 1540.704250 105 84 96
-369.887710 195.954990 1531.630707 91 75 85
-372.359991 -134.498262 1569.720554 124 103 121
-367.467666 254.570794 1525.789928 41 36 40
-369.884229 22.900170 1552.041149 106 89 107
-371.244717 83.704156 1543.257332 74 61 85
-368.372488 281.361318 1521.237659 90 79 93
-370.035696 -116.396761 1568.671417 116 98 122
-369.246078 152.964461 1536.049938 117 96 110
-370.087504 -28.354961 1557.263851 61 43 56
-369.473863 127.086759 1538.611317 114 94 100
-380.322504 325.846410 1503.866959 89 82 87
-370.603848 81.844449 1542.855167 117 103 126
-370.603848 81.844449 1542.855167 117 103 126
-367.935967 276.160216 1520.970058 49 41 51
-369.713020 50.395429 1546.815395 119 101 113
-369.571328 29.544392 1549.236393 125 105 123
-368.115592 207.252359 1528.638363 105 90 99
-369.675231 62.618381 1544.872379 128 105 118
-370.600152 116.993439 1537.308884 60 47 63
-370.816350 -153.190327 1570.266724 85 71 100
-370.816350 -153.190327 1570.266724 85 71 100
-380.131650 326.994395 1502.273750 92 84 89
-370.939589 -117.753160 1565.431786 80 65 87
-370.939589 -117.753160 1565.431786 80 65 87
-369.883060 -31.071883 1555.550289 128 100 115
-371.389341 -126.156223 1565.648746 69 57 75
-367.052126 248.479724 1523.475838 48 41 51
-368.481469 -163.941610 1572.726631 117 94 111
-370.955729 313.836145 1511.491203 91 83 91
-366.781592 219.236875 1526.771641 107 89 96
-366.781592 219.236875 1526.771641 107 89 96
-367.982721 -49.617606 1558.271885 63 45 57
-366.787338 155.199075 1534.051895 65 52 65
-369.674635 -120.475709 1565.230846 120 101 123
-368.064308 -25.897840 1555.027676 129 104 119
-369.520140 -78.177780 1559.457207 82 63 85
-369.520140 -78.177780 1559.457207 82 63 85
-369.520140 -78.177780 1559.457207 82 63 85
-367.978406 -41.061154 1555.904388 76 56 71
-367.015266 -65.472651 1559.649277 42 37 52
-367.823648 -36.154747 1555.201626 83 61 79
-366.371226 194.182932 1528.151703 86 71 77
-368.459606 16.619061 1547.600365 115 94 117
-368.459606 16.619061 1547.600365 115 94 117
-368.004823 -71.348459 1558.600712 125 101 120
-366.378665 73.821801 1541.982174 62 51 64
-364.962983 157.299018 1532.838917 126 104 112
-365.271378 288.438153 1516.347408 46 36 44
-365.779018 176.193142 1529.604435 111 93 111
-368.308449 -108.134675 1562.141609 86 68 93
-367.009449 50.596243 1543.816471 126 106 118
-366.611624 89.112228 1539.345646 128 104 122
-368.108130 -109.825480 1561.820126 117 101 121
-365.952325 -167.277730 1570.609093 61 52 75
-365.894723 -61.590618 1557.663345 132 107 126
-364.056087 216.983891 1524.987030 46 36 47
-365.496445 -29.048896 1552.898884 63 45 59
-365.444064 32.496670 1545.231056 116 98 116
-365.627789 84.489751 1538.673210 62 55 76
-365.374136 -32.035503 1552.609444 122 103 124
-365.861845 -99.144506 1560.116100 85 62 75
-365.128875 46.002868 1542.250061 77 65 82
-365.128875 46.002868 1542.250061 77 65 82
-363.644886 213.571501 1523.016834 100 79 93
-366.090679 -106.561697 1559.818172 78 63 89
-364.912796 -75.686437 1556.405354 119 97 117
-363.391376 -65.609187 1556.112289 46 35 48
-364.044189 114.344800 1533.325863 105 88 102
-362.884307 124.478424 1532.885361 74 56 73
-359.702635 250.156474 1519.704056 94 76 87
-364.415669 16.146444 1543.853188 128 108 133
-364.415669 16.146444 1543.853188 128 108 133
-364.317894 -68.415064 1554.284573 109 91 110
-362.358952 157.111180 1527.937603 122 102 112
-363.299561 82.375062 1536.002636 126 106 130
-362.621284 227.909923 1518.196392 97 84 104
-362.409568 197.928536 1521.871948 92 69 83
-360.923362 212.831688 1520.612907 44 29 36
-360.751247 126.077294 1531.364059 111 89 105
-361.031389 192.783523 1522.846317 42 33 43
-360.743141 114.212823 1532.428741 50 35 44
-360.929394 88.268286 1533.850574 127 107 129
-360.970163 48.229969 1538.393021 76 58 75
-362.200785 -155.591726 1561.290455 86 64 94
-358.969188 123.502743 1529.810143 65 48 62
-359.333062 290.013313 1508.562851 56 44 56
-359.333062 290.013313 1508.562851 56 44 56
-360.453272 14.334263 1541.102314 81 64 88
-359.190440 204.722619 1518.440723 47 33 44
-360.763741 20.778280 1539.485455 117 98 118
-358.213854 -29.818705 1547.843647 59 42 58
-361.734414 84.011626 1530.703068 106 89 107
-357.482910 69.413292 1536.247730 65 52 68
-359.937096 -65.842277 1550.439548 61 49 71
-359.315324 113.144028 1528.977680 57 45 60
-358.431602 8.195345 1542.421055 54 44 57
-361.221504 312.909245 1502.318096 93 85 93
-358.555007 29.058072 1538.566685 118 98 114
-357.925820 74.002951 1533.619404 118 94 108
-360.203981 -155.595958 1559.598732 123 103 121
-359.203339 16.066575 1538.739777 116 97 116
-357.378745 191.767359 1518.654346 53 42 54
-357.378745 191.767359 1518.654346 53 42 54
-357.419372 194.071305 1518.275738 96 75 85
-356.960368 216.253853 1515.365982 43 34 42
-358.714223 14.220676 1538.413429 84 69 88
-355.094290 252.604914 1511.293507 101 87 105
-356.977749 20.634338 1537.692070 111 90 108
-357.376790 38.079643 1534.790421 110 89 107
-357.710481 11.245956 1537.513542 122 101 121
-357.124567 17.297181 1537.266636 84 65 87
-354.902458 151.900780 1522.272682 46 37 48
-353.953409 -70.697850 1549.972153 106 87 112
-355.935955 160.860407 1519.580936 71 56 67
-355.398107 227.027154 1511.784935 56 42 53
-354.552245 57.708091 1532.835674 100 77 94
-357.189131 -156.356478 1556.485844 80 65 94
-350.883293 247.358704 1511.820221 36 29 34
-354.883456 -137.553585 1555.243778 120 99 123
-353.751659 -30.142069 1543.012905 49 39 53
-353.300166 240.240288 1510.315704 84 74 96
-354.411149 100.015163 1526.303959 68 50 67
-352.932239 290.005326 1504.009438 109 87 90
-352.928424 156.442237 1520.294380 111 93 105
-355.652237 -52.404672 1543.362522 81 66 95
-352.628255 218.673301 1512.838745 84 71 74
-355.246758 86.936301 1526.588917 78 68 91
-355.246758 86.936301 1526.588917 78 68 91
-355.227494 -109.048331 1550.350094 81 69 94
-353.322101 24.877465 1535.507965 58 48 62
-353.322101 24.877465 1535.507965 58 48 62
-352.702641 70.745754 1530.265713 48 36 52
-353.704476 -80.603594 1547.590542 68 52 67
-352.819443 191.869962 1514.890385 51 36 44
-353.293705 -73.141873 1546.586418 54 42 53
-353.293705 -73.141873 1546.586418 54 42 53
-352.289915 73.210287 1529.015255 119 95 106
-355.935550 -167.051423 1555.051517 54 47 60
-352.517080 33.495790 1533.334064 75 60 76
-354.699063 -115.154433 1549.005795 86 69 96
-353.232861 19.997992 1533.280182 108 87 111
-352.593207 -89.743876 1546.758938 85 67 90
-351.178479 151.862895 1518.464470 31 28 34
-353.778267 -117.268836 1548.633766 129 112 130
-351.245332 56.112224 1529.692841 52 38 46
-353.466487 -149.791098 1552.750301 71 59 86
-353.466487 -149.791098 1552.750301 71 59 86
-353.053832 -139.949882 1551.804161 77 66 97
-349.830866 -68.863940 1545.860481 49 38 46
-349.822640 -68.973261 1545.882607 50 40 52
-352.959514 -137.222886 1551.373291 122 103 126
-351.117110 61.282760 1528.052235 41 28 39
-352.085805 146.575749 1516.568661 97 84 105
-350.783491 191.236413 1512.106037 48 36 43
-351.504683 -73.836505 1543.447304 122 105 124
-350.654793 210.845065 1509.025383 80 64 76
-350.654793 210.845065 1509.025383 80 64 76
-346.710873 217.558098 1511.600494 30 25 27
-351.157045 304.805231 1496.798897 46 39 52
-349.988770 308.312631 1497.137356 85 65 68
-350.467062 310.592747 1495.867729 53 42 42
-359.523988 321.517920 1486.188412 105 90 106
-349.305582 171.192253 1513.485718 51 43 55
-349.679756 66.326100 1525.501442 79 63 78
-349.370050 66.280299 1525.654030 79 63 78
-350.213599 -142.711580 1550.151539 114 97 122
-348.253489 122.323036 1519.482994 60 51 66
-351.179504 -171.368074 1552.114487 111 97 121
-347.777176 -93.973798 1545.580959 118 96 115
-350.091362 -146.512127 1549.671078 67 55 83
-348.004365 -97.998023 1545.215988 38 27 36
-349.087095 53.567010 1525.728512 109 87 102
-347.838974 239.496922 1504.074574 93 73 78
-347.058535 152.785063 1515.019226 47 41 55
-348.897767 98.838657 1519.694614 68 52 69
-346.261930 69.570804 1525.254059 24 19 26
-348.670292 27.697319 1527.949333 111 94 105
-345.875072 6.083913 1532.762241 47 36 45
-349.685121 29.684606 1526.513004 70 56 74
-347.981310 -71.277440 1540.297127 111 93 117
-346.364951 193.452871 1509.339523 98 80 92
-347.941422 60.745257 1524.053764 109 83 98
-347.033691 190.806043 1508.994102 56 42 56
-347.761750 102.375889 1518.922329 113 94 113
-346.643400 -65.524364 1539.769459 123 102 116
-355.708504 319.771028 1484.172153 57 43 46
-348.153710 91.500139 1518.307686 42 36 48
-346.401215 248.231363 1500.610924 98 80 88
-344.089913 50.297236 1526.442909 46 36 50
-346.138024 309.669352 1493.014431 44 38 35
-345.913529 -26.367056 1533.463573 123 101 119
-345.897269 40.133449 1525.148106 109 85 97
-346.169877 146.605051 1511.938286 88 76 97
-347.606063 -160.261333 1547.987270 126 100 120
-345.526314 2.593680 1529.864788 99 81 90
-345.965409 -98.634398 1541.798210 61 44 58
-346.148396 244.688749 1499.609566 34 28 40
-345.165706 42.789993 1524.348259 112 85 100
-345.700932 99.189168 1516.968346 68 53 71
-345.743608 -6.965528 1529.819870 127 108 123
-347.161293 -172.540069 1548.373222 88 72 97
-345.177984 -0.912277 1528.980350 119 99 112
-344.163966 157.594132 1510.516834 110 93 110
-355.875182 323.049116 1479.467201 80 71 79
-344.407344 170.851982 1507.422066 35 30 39
-344.407344 170.851982 1507.422066 35 30 39
-346.400642 -169.972694 1546.960258 109 94 119
-343.822026 39.829454 1522.804928 71 57 76
-345.512319 13.876574 1524.443626 117 103 126
-347.668433 312.369204 1485.891724 93 83 98
-355.776572 325.673294 1477.127552 42 35 37
-342.810535 -29.806554 1531.497002 39 35 44
-354.875112 323.022366 1478.007507 83 75 81
-344.259191 18.355572 1524.205589 65 53 75
-344.259191 18.355572 1524.205589 65 53 75
-341.171193 192.304337 1505.274677 92 75 84
-342.432833 10.664278 1526.162910 104 86 109
-343.073010 49.904612 1520.730495 54 42 55
-342.541385 148.748577 1509.083748 37 36 41
-342.941594 21.576335 1524.059391 115 91 110
-342.343974 247.512436 1496.650982 92 76 87
-342.576241 145.356929 1508.289814 39 33 41
-342.576241 145.356929 1508.289814 39 33 41
-342.015839 28.550315 1522.419739 127 110 128
-340.413094 218.042421 1500.234604 82 71 74
-341.100287 137.405682 1508.277416 88 76 93
-341.490340 -67.814153 1532.855034 125 111 130
-341.671658 162.245524 1504.434490 67 53 64
-341.092849 25.228232 1521.334362 52 44 57
-339.294076 171.165693 1505.036545 37 35 43
-338.670254 155.755126 1507.257366 39 30 34
-341.390705 -55.505025 1530.509090 70 64 95
-339.930558 -31.381860 1528.012180 53 38 51
-339.932585 -98.697495 1536.088371 136 114 126
-337.078667 192.488289 1502.469730 101 83 87
-340.356064 -0.576499 1522.957993 111 95 118
-340.184259 -27.058339 1526.279068 126 106 124
-339.053702 136.760414 1506.502342 45 32 42
-338.871074 139.621544 1506.046104 44 33 43
-338.317060 120.556760 1508.265305 57 44 59
-336.806202 286.085844 1489.375687 96 79 88
-338.585472 -141.853774 1539.423084 64 52 77
-338.644743 -69.290686 1530.503654 55 44 62
-338.644743 -69.290686 1530.503654 55 44 62
-338.051891 -30.134642 1526.154041 113 96 111
-339.011359 143.331516 1504.229069 102 80 96
-338.832927 -101.244450 1533.275032 70 58 81
-337.365222 159.051657 1502.608395 105 89 103
-337.916660 -32.175347 1524.973392 48 37 54
-338.059163 -52.258193 1527.014446 74 61 90
-337.758327 47.555423 1515.102577 66 56 71
-338.481665 154.384887 1501.266479 50 40 54
-337.876439 -56.757146 1526.789474 119 98 120
-336.824918 94.740331 1508.845139 92 76 87
-336.899114 -99.917424 1531.990242 116 95 115
-335.561204 123.187256 1505.339909 105 79 89
-336.353016 -69.835794 1527.443123 62 45 68
-337.709904 -174.873173 1539.011478 80 67 90
-335.728526 10.193612 1518.192005 119 99 120
-347.332954 322.163773 1470.595169 81 72 81
-336.121845 -30.199480 1522.122478 123 103 120
-335.145354 184.807289 1496.868610 84 75 97
-335.505605 308.820724 1481.494236 41 31 33
-336.256361 -61.461979 1525.564766 84 74 104
-336.256361 -61.461979 1525.564766 84 74 104
-335.150933 67.287797 1510.818481 31 27 37
-335.150933 67.287797 1510.818481 31 27 37
-334.422469 119.669366 1504.937267 55 44 57
-334.902573 96.948010 1506.891441 58 42 57
-334.956861 -33.176777 1521.934509 52 41 58
-334.554076 -99.944460 1530.295467 121 97 111
-334.686494 47.486675 1511.840439 61 48 64
-334.774756 72.673404 1508.654499 106 87 100
-335.614252 -137.767816 1533.333588 132 109 128
-335.237432 -142.703629 1534.125805 76 67 95
-334.737158 -141.879511 1534.150314 75 57 82
-334.307218 164.335537 1497.152519 53 46 49
-333.288860 51.575583 1511.639881 112 85 96
-336.598778 310.584831 1476.744652 52 38 46
-334.697390 -181.273615 1537.530613 83 60 85
-331.585622 152.812564 1499.017906 102 86 95
-331.462359 218.327689 1490.894604 97 74 80
-331.173682 -69.682282 1523.958874 43 31 43
-335.533881 311.794734 1474.173546 84 76 89
-332.805514 -142.106330 1531.212616 74 64 94
-332.446980 -167.617142 1534.593678 65 51 74
-331.857133 23.655739 1511.368465 79 61 79
-331.253099 -67.025959 1522.625637 120 102 125
-330.291462 168.191528 1494.893551 50 40 51
-332.103157 -9.117091 1514.411926 84 74 104
-331.634712 -151.322639 1531.112194 90 70 101
-331.634712 -151.322639 1531.112194 90 70 101
-329.888010 48.580560 1508.179188 52 42 56
-330.061936 93.351424 1502.588367 55 47 63
-329.923797 171.398151 1493.244553 105 82 91
-329.807377 293.071103 1478.429604 27 20 22
-326.413822 215.135527 1489.870548 34 27 38
-329.162908 154.554856 1494.882202 101 86 103
-330.165553 -33.468127 1516.770267 54 44 59
-330.422187 -30.965626 1516.079903 128 112 130
-329.671955 24.952027 1509.489441 125 99 111
-329.669118 -145.194447 1529.825401 120 101 122
-328.352332 50.484639 1506.506157 103 82 97
-328.773189 -167.692375 1532.305050 55 39 49
-329.657578 -139.970267 1528.226376 124 103 118
-328.081346 -168.124676 1532.645226 55 39 49
-328.351116 -152.449894 1530.438614 123 105 122
-330.867219 156.997037 1490.752316 83 74 102
-328.744197 -104.137349 1523.814106 68 56 72
-329.266763 -67.143762 1518.896580 116 98 118
-327.195644 230.574059 1484.515190 89 70 73
-327.195644 230.574059 1484.515190 89 70 73
-329.414153 80.956471 1499.976444 99 83 111
-330.907774 310.907602 1470.672131 75 65 81
-325.607681 245.061326 1482.975769 43 40 51
-329.326582 -118.000448 1523.729038 83 68 96
-327.653718 30.998296 1506.704426 132 113 132
-327.917814 118.546259 1495.794964 64 46 62
-327.917814 118.546259 1495.794964 64 46 62
-326.429820 218.894482 1484.684753 92 70 73
-328.109956 89.827776 1498.784065 118 96 122
-328.552151 0.988731 1508.989525 119 106 127
-326.773238 -143.180680 1527.725792 59 45 55
-328.279781 213.078833 1483.391476 35 29 39
-327.250528 181.465924 1487.891674 47 35 56
-327.116084 24.309596 1506.847668 58 47 61
-327.235699 -147.626221 1527.417850 70 58 70
-324.006987 287.477160 1477.388477 29 24 25
-327.184939 -160.045195 1528.597736 67 50 64
-326.920581 23.822331 1506.105137 55 43 61
-327.826571 -124.371994 1523.180676 84 69 100
-325.729990 93.185192 1498.629951 52 43 60
-327.002001 -153.174078 1527.262783 75 62 81
-326.983714 -6.574669 1508.598995 119 105 132
-323.535109 49.384737 1504.030609 105 86 98
-323.963761 233.227539 1480.706024 87 70 78
-325.283813 40.664580 1502.647686 100 81 98
-324.920678 35.331023 1502.812290 121 100 119
-325.223017 -183.743501 1528.898239 68 49 66
-325.076580 -165.241003 1526.532078 120 99 121
-324.822521 -139.760983 1523.482513 128 107 126
-325.146031 21.780334 1503.732300 113 95 118
-322.779441 243.481946 1478.805447 37 34 43
-325.074506 90.057039 1495.340252 97 85 105
-323.229861 -104.139721 1519.861412 52 39 54
-322.703838 44.503087 1502.014446 67 51 63
-323.415947 -101.288843 1518.240929 118 97 112
-323.058534 215.852427 1480.197239 94 72 79
-321.277809 196.626091 1482.988739 47 36 48
-322.424245 -34.576628 1509.654999 64 49 73
-320.760036 192.096543 1483.585453 109 86 90
-320.371389 68.386340 1497.939682 100 83 91
-322.574329 -36.818403 1507.821274 105 93 120
-321.521521 -107.344353 1516.806030 107 89 111
-319.842029 25.004694 1500.461197 109 89 103
-320.284104 3.998550 1502.622890 72 54 73
-318.544221 152.647328 1484.908390 106 87 95
-319.256258 -119.164562 1516.592693 118 100 117
-318.105578 200.994539 1479.003906 95 78 86
-319.864082 77.012271 1492.404366 98 82 105
-318.919921 -125.728488 1517.426968 119 105 125
-319.829774 2.126327 1501.300621 128 115 133
-319.829774 2.126327 1501.300621 128 115 133
-318.569756 169.470584 1481.849575 93 76 86
-319.889855 -20.010708 1503.104877 73 64 88
-318.167710 32.977450 1497.999763 40 27 37
-319.282603 -164.422750 1520.515919 134 112 132
-318.539214 -107.247710 1513.887882 64 50 62
-319.585419 -169.283402 1520.379448 60 49 65
-319.585419 -169.283402 1520.379448 60 49 65
-318.599176 -110.856652 1513.877296 63 49 58
-317.119932 23.613113 1498.353863 43 37 52
-318.293118 -115.445721 1514.029503 75 60 70
-318.393540 112.814748 1486.360359 98 82 105
-319.784355 -173.095620 1519.166756 115 102 125
-316.777229 -121.864104 1515.281677 57 41 52
-318.385267 14.357938 1497.545719 76 62 88
-317.139363 -140.496802 1517.090893 36 28 30
-316.167688 66.070980 1492.582798 86 71 81
-316.599035 -66.878837 1508.099461 124 103 120
-317.313290 -127.610922 1514.499187 68 55 68
-315.948963 -33.549699 1503.608513 135 115 128
-314.417410 46.463197 1494.743061 45 39 55
-317.100191 -106.481540 1510.410404 114 96 110
-316.481137 -102.696311 1510.413074 115 93 109
-316.237283 -73.964667 1506.766415 120 102 124
-315.670681 152.141786 1479.780197 96 78 92
-316.618347 82.464576 1487.048149 47 37 52
-315.626955 -180.384409 1519.061184 122 102 120
-316.127539 -109.582150 1510.095787 108 92 110
-316.127539 -109.582150 1510.095787 108 92 110
-315.352798 -47.607958 1502.711582 84 68 86
-315.853429 -142.481148 1513.537025 101 91 117
-314.354205 -63.343126 1505.059052 58 44 60
-314.463854 43.192145 1492.150688 82 72 93
-315.280485 -137.761879 1513.030434 129 109 125
-314.108825 -52.036315 1503.035069 71 55 70
-314.161420 40.660921 1491.583538 50 43 66
-314.332581 -57.469046 1503.129864 73 66 87
-314.332581 -57.469046 1503.129864 73 66 87
-314.072156 -140.463948 1513.282776 57 38 56
-312.742543 -185.494435 1519.499397 43 38 46
-312.742543 -185.494435 1519.499397 43 38 46
-314.707994 -105.044448 1508.155632 52 38 51
-313.121653 269.517279 1463.936138 61 52 66
-311.505914 64.558917 1489.419174 84 72 81
-312.614155 -66.857332 1503.486633 129 110 128
-313.604403 -102.964783 1506.670475 125 100 111
-312.913108 -188.367367 1516.909409 116 94 112
-310.975099 24.416104 1492.922211 102 80 94
-310.898995 151.768744 1477.387524 99 82 92
-313.953781 -131.058609 1508.297729 126 105 117
-312.342930 -1.332006 1493.882084 125 107 135
-311.809659 10.274036 1492.753410 128 104 128
-309.606338 117.996132 1480.855465 42 31 39
-314.522076 -190.943062 1513.811588 117 98 125
-309.186316 59.603548 1485.900116 36 29 42
-308.860207 17.378083 1490.588760 56 43 54
-310.454583 -182.525563 1512.915993 114 94 113
-308.563089 3.130042 1491.556644 52 43 61
-309.621859 -105.506885 1502.821922 57 41 51
-306.133723 62.712955 1484.470749 79 67 73
-309.769726 -107.528615 1501.812267 111 95 109
-307.814860 -142.973697 1507.559299 106 96 115
-308.938837 -132.779849 1505.379009 65 49 70
-308.938837 -132.779849 1505.379009 65 49 70
-308.740878 -138.360202 1506.189823 130 104 118
-308.532453 -130.572057 1504.737282 115 97 114
-307.148623 87.641180 1479.561043 74 63 76
-307.927322 10.749726 1488.098335 39 29 36
-308.023000 0.164615 1489.179134 109 98 118
-308.067393 -111.090398 1502.135658 115 97 116
-308.067393 -111.090398 1502.135658 115 97 116
-307.047939 -140.958261 1506.451511 48 34 48
-307.019734 -170.632184 1509.171200 53 43 56
-305.611849 -185.846043 1512.063026 65 46 65
-308.011127 -55.272949 1494.036961 86 73 105
-306.349826 -107.304680 1500.810337 103 88 102
-305.694771 0.614781 1487.481594 80 64 88
-305.437779 4.783435 1487.076950 130 113 121
-305.284238 -1.567419 1487.339783 119 107 127
-306.718588 -180.017471 1507.515335 91 74 101
-304.887891 -136.979210 1503.677273 115 95 113
-304.887891 -136.979210 1503.677273 115 95 113
-305.568242 -144.809031 1504.021835 117 101 127
-392.128849 319.181752 1382.121563 67 60 88
-305.202699 -3.704706 1487.209702 91 74 103
-304.204845 -106.308472 1499.337482 58 41 53
-304.204845 -106.308472 1499.337482 58 41 53
-302.712417 -193.924403 1508.984280 68 53 69
-302.615976 -118.227470 1499.629784 52 42 53
-303.904271 -35.862437 1488.721752 71 59 76
-303.215027 -0.944585 1484.493065 128 112 117
-303.983092 -59.029031 1490.797615 84 72 102
-303.983092 -59.029031 1490.797615 84 72 102
-303.344679 -71.474791 1492.535591 67 56 83
-302.319574 -131.184137 1500.298023 75 59 80
-301.449394 -108.474326 1497.810841 121 101 111
-301.499748 -135.262287 1500.107861 68 52 71
-301.499748 -135.262287 1500.107861 68 52 71
-301.869321 -68.153030 1490.899754 123 101 125
-300.767469 -111.183500 1496.753883 70 56 72
-301.438046 -196.364403 1505.049706 117 102 132
-301.098871 -138.129997 1498.177242 114 94 121
-299.340034 -14.100400 1484.198093 129 110 130
-298.549223 -14.185362 1484.515476 129 110 130
-298.042226 -10.588416 1482.248211 67 45 59
-297.839761 -13.691188 1482.159710 74 52 69
-298.152828 -16.906227 1482.165909 79 60 78
-299.271441 -184.110355 1500.826740 124 104 120
-298.337460 -70.050871 1487.882710 124 107 130
-381.315517 298.789525 1381.514931 107 90 119
-381.315517 298.789525 1381.514931 107 90 119
-299.294901 -174.311841 1498.783493 111 92 119
-296.426105 -190.108073 1501.381779 95 87 109
-295.289516 -139.057589 1494.403934 74 65 85
-294.906354 -24.746770 1480.639267 83 64 78
-294.906354 -24.746770 1480.639267 83 64 78
-295.565987 -114.813519 1489.557171 75 61 91
-293.692088 -154.473233 1495.174408 68 49 71
-295.192623 -39.015132 1480.319977 119 103 127
-294.148088 -32.295153 1479.966259 111 88 98
-294.104195 -35.005152 1478.847599 64 45 60
-371.099043 166.867638 1397.483635 34 29 41
-371.099043 166.867638 1397.483635 34 29 41
-381.490088 317.895150 1371.403790 69 62 85
-292.409015 -143.184614 1491.902828 121 100 107
-291.989803 -146.973968 1492.113400 53 43 45
-293.547058 -118.077552 1487.518883 85 67 101
-293.547058 -118.077552 1487.518883 85 67 101
-291.495323 -73.160666 1483.614540 54 41 56
-307.666349 47.610268 1457.177734 26 25 52
-370.526814 164.257383 1396.944332 84 74 111
-290.445733 -133.597660 1491.152096 134 109 126
-292.835855 -27.706435 1476.360035 131 107 125
-370.612645 198.332179 1392.267990 48 48 63
-370.612645 198.332179 1392.267990 48 48 63
-291.609430 -170.958853 1493.180561 50 40 54
-291.023731 -31.599256 1476.952171 72 54 69
-369.186187 182.971239 1394.076061 31 31 37
-290.090013 -156.623375 1492.460537 59 42 54
-290.869737 -169.745815 1493.370819 62 53 65
-292.017889 -128.049803 1486.644459 74 61 95
-290.980792 -172.882378 1491.543293 113 94 116
-289.856219 -104.624760 1484.078884 60 49 63
-289.251399 -102.136171 1484.074974 69 46 59
-368.335509 179.111350 1392.668629 79 73 113
-289.507842 -70.910299 1479.387474 116 97 124
-290.649009 -40.436658 1474.787998 77 67 97
-289.295864 -143.996608 1487.801552 123 108 125
-289.876795 -125.552392 1484.577560 77 65 97
-289.306688 -147.235835 1486.780643 71 58 83
-289.563489 -102.415705 1481.219482 108 89 110
-288.768911 -102.552533 1481.530476 108 89 110
-369.979000 253.485560 1380.143070 31 28 38
-288.190866 -65.696269 1477.100086 78 68 99
-368.422866 272.639418 1378.518867 39 32 44
-286.908078 -93.409240 1480.999756 123 99 108
-366.769695 183.099365 1389.771461 63 63 93
-286.120415 -36.284003 1474.231339 76 55 74
-366.101742 160.375571 1392.777634 85 76 116
-288.029504 -161.997759 1487.579918 123 107 129
-288.517308 -158.244014 1486.310387 80 71 93
-288.517308 -158.244014 1486.310387 80 71 93
-286.510515 -97.986370 1479.859352 113 94 110
-286.579895 -183.754528 1489.342499 124 102 128
-364.967275 170.589614 1390.632820 108 91 97
-364.967275 170.589614 1390.632820 108 91 97
-364.852571 186.029494 1388.463879 26 26 38
-287.224865 -202.212095 1490.448570 94 79 110
-283.751059 -34.916753 1471.027184 129 103 116
-284.219408 -99.689639 1478.200531 68 47 60
-362.905645 199.785256 1385.427094 53 49 64
-364.332914 238.776684 1379.592133 28 29 38
-364.332914 238.776684 1379.592133 28 29 38
-284.802103 -45.741522 1469.360542 84 68 101
-284.802103 -45.741522 1469.360542 84 68 101
-284.744120 -154.660344 1482.157040 91 74 104
-283.371496 -175.019777 1484.920502 111 96 120
-283.829784 -135.747862 1479.584503 91 76 104
-364.343476 294.138551 1370.936871 100 82 119
-338.918757 141.866732 1407.010651 94 79 132
-281.113386 -33.593979 1468.347740 126 105 115
-282.972217 -70.378047 1471.259499 122 104 128
-361.202955 186.870897 1385.004997 82 74 118
-263.814855 -53.022075 1482.541943 109 95 124
-263.814855 -53.022075 1482.541943 109 95 124
-361.298299 247.998428 1377.341175 27 27 42
-281.799817 -141.004360 1479.949093 88 66 94
-330.823493 56.225246 1420.947170 33 27 50
-360.117030 161.902070 1387.399006 38 31 41
-280.571985 -106.036055 1475.548649 42 36 56
-281.394601 -100.889504 1474.273205 128 110 134
-370.772362 303.553319 1362.681293 28 29 44
-280.430174 -187.572145 1484.784603 47 38 56
-359.673810 192.154956 1383.145523 32 27 51
-359.673810 192.154956 1383.145523 32 27 51
-359.941936 165.063536 1385.483551 83 69 110
-359.651256 176.183641 1384.035873 88 74 120
-359.788036 271.685576 1372.115707 65 55 91
-280.149341 -167.869818 1480.191803 132 113 129
-279.010320 -53.301853 1466.354752 74 64 97
-278.981900 -112.623882 1472.202110 67 57 92
-278.638458 -189.536512 1480.929470 114 101 129
-277.960420 -172.826791 1479.411316 108 93 119
-324.490547 107.725143 1412.360573 80 61 93
-356.238890 180.884206 1381.228924 53 45 69
-278.314376 -52.118170 1463.075638 78 67 104
-342.829871 19.866611 1409.192276 24 19 49
-357.919192 262.548733 1369.887257 28 27 41
-361.049104 295.681334 1363.610935 45 40 50
-324.824286 116.321409 1410.151005 94 78 112
-276.165318 -36.217013 1462.138653 74 51 68
-275.765967 -171.417964 1477.435112 79 61 93
-276.608014 -200.879097 1480.283642 125 109 136
-275.388646 -70.362735 1465.677071 115 97 119
-278.838134 -167.769194 1474.236298 131 108 127
-276.133060 -184.066832 1478.038311 122 104 133
-276.083612 -122.223032 1470.235538 87 70 104
-275.318170 -46.464416 1461.771584 131 115 138
-274.636889 -138.041663 1472.653198 135 113 132
-275.219274 -143.030405 1471.238518 109 100 120
-353.544450 198.726678 1376.238537 58 58 76
-355.649185 166.058469 1378.504276 37 36 36
-272.585750 -58.970582 1461.414433 91 72 100
-272.733593 -141.326022 1470.846939 61 48 71
-272.377777 -51.156080 1460.395718 76 54 75
-272.830606 -103.378534 1465.507889 124 98 117
-271.956539 -47.746527 1459.545612 87 65 90
-272.529483 -45.346552 1458.841133 80 61 84
-309.084320 68.405938 1420.128345 25 22 48
-354.823351 266.322231 1365.032959 25 25 38
-354.823351 266.322231 1365.032959 25 25 38
-272.360849 -109.957695 1465.404129 101 88 106
-270.306683 -65.923500 1461.155701 78 66 94
-304.684925 81.637174 1419.968319 43 33 67
-270.878077 -61.127543 1460.031986 130 111 128
-272.575259 -184.245384 1473.176098 96 78 111
-353.756905 292.599392 1359.814262 93 79 114
-353.756905 292.599392 1359.814262 93 79 114
-270.363522 -52.408504 1457.542229 131 112 134
-271.106052 -176.015711 1471.163654 77 67 97
-302.976370 78.780639 1418.909931 77 63 100
-302.976370 78.780639 1418.909931 77 63 100
-269.436312 -107.916665 1463.420677 57 44 60
-270.269513 -199.267411 1473.576832 131 111 132
-269.290161 -207.977509 1474.925232 137 117 135
-269.422984 -137.026358 1466.394806 87 69 91
-269.508910 -43.298900 1455.124187 127 110 138
-268.282104 -191.770399 1472.991467 129 106 122
-269.358897 -116.406596 1463.197899 81 70 97
-268.460488 -195.042372 1472.946358 125 102 120
-333.540869 153.579307 1387.266731 56 54 73
-316.343570 107.111418 1403.257561 75 56 93
-316.343570 107.111418 1403.257561 75 56 93
-307.756996 63.719255 1414.125538 36 33 71
-348.525500 160.950565 1374.814510 94 83 121
-316.872764 112.779856 1401.916885 38 31 60
-268.600035 -103.729165 1460.152912 129 105 122
-266.861224 -207.586265 1473.503876 67 42 55
-350.246024 266.619921 1360.472202 65 58 95
-266.636777 -191.574514 1470.846176 68 44 61
-267.621350 -177.712119 1468.203449 70 61 91
-266.070032 -214.620829 1473.480797 77 59 74
-346.976066 169.832206 1373.001003 59 56 71
-267.679143 -180.717695 1467.900848 126 111 136
-266.755867 -187.048876 1469.215679 135 117 140
-266.855693 -73.952371 1455.745697 78 68 97
-313.663864 121.047914 1400.473022 119 102 146
-266.186428 -137.335229 1462.942600 122 101 126
-266.186428 -137.335229 1462.942600 122 101 126
-358.597970 301.877642 1348.677254 26 25 32
-351.938939 294.858909 1353.908443 50 43 54
-346.407723 164.307070 1372.756863 26 24 39
-346.224570 186.847317 1370.170021 42 36 60
-347.720218 261.365581 1359.624100 27 24 37
-347.672057 246.230650 1361.418533 65 56 97
-346.787524 274.814939 1358.633327 23 25 32
-266.334224 -154.089940 1463.322639 95 83 110
-266.334224 -154.089940 1463.322639 95 83 110
-264.809155 -193.261290 1468.890381 119 97 120
-263.214970 -107.709455 1459.716034 60 45 60
-347.762704 253.237414 1359.736919 29 26 40
-262.791514 -113.918376 1459.220505 72 59 82
-264.557886 -189.636946 1466.451550 80 59 80
-346.608996 263.181734 1358.040333 53 53 70
-296.512198 70.986503 1413.997269 24 21 62
-344.355059 167.473161 1369.996071 23 22 38
-345.024991 280.500746 1355.662823 21 21 22
-263.042164 -104.023504 1455.799866 128 103 119
-352.811265 313.703966 1345.449924 28 31 36
-344.966364 249.880362 1358.097839 24 23 34
-318.772292 131.143653 1389.320469 123 105 154
-260.411978 -107.359099 1455.503845 79 59 76
-351.963782 213.520718 1356.618404 17 19 28
-261.546969 -175.092423 1462.459755 66 56 78
-261.187005 -145.301795 1458.692074 81 70 97
-261.202455 -142.794716 1458.060360 120 101 121
-340.726614 173.107827 1367.489338 41 36 40
-260.373282 -140.758181 1456.533337 92 72 99
-339.738774 182.169509 1365.279770 86 75 116
-258.037186 -106.693447 1453.277683 125 103 114
-341.987848 255.784845 1354.643917 57 52 82
-258.980036 -192.454255 1461.509609 126 110 132
-258.800960 -196.156061 1462.013054 74 60 88
-258.800960 -196.156061 1462.013054 74 60 88
-341.795945 220.844126 1357.898426 26 27 46
-258.705902 -151.702523 1456.291771 132 112 132
-344.431949 294.185185 1346.977615 48 42 54
-257.920575 -107.757163 1451.151943 69 52 65
-291.169500 66.762078 1408.288097 30 28 68
-258.144236 -73.139042 1446.077156 93 72 94
-257.465935 -176.057136 1458.438587 108 95 118
-295.660973 58.254004 1405.418015 28 24 60
-256.728745 -110.346937 1450.309372 98 86 105
-255.865121 -39.992025 1441.800117 133 109 120
-347.546458 296.270800 1342.083836 96 78 115
-256.683350 -145.025277 1453.340340 85 70 101
-284.603882 83.681864 1407.801151 27 22 47
-254.527283 -108.316112 1449.875736 53 39 54
-337.610316 166.479993 1363.045788 43 34 49
-337.154913 163.470936 1363.608932 98 83 125
-337.313223 163.681173 1363.111305 98 83 125
-337.313223 163.681173 1363.111305 98 83 125
-338.535619 279.409361 1347.902489 26 23 27
-254.928160 -219.370294 1459.764004 133 115 134
-251.862764 -105.617797 1445.922089 114 94 110
-253.277326 -75.414848 1441.335392 113 95 120
-334.736919 162.943089 1360.497189 41 35 56
-317.222071 144.956028 1373.760128 107 94 140
-252.102327 -169.973838 1451.643848 133 112 129
-252.266240 -36.239815 1435.763168 120 99 110
-251.923108 -195.236397 1454.450417 120 102 125
-285.151649 61.638260 1402.895164 35 30 69
-250.012088 -192.707574 1453.685951 67 53 76
-250.888324 -209.589410 1454.435253 87 66 97
-250.393629 -184.486258 1450.895691 85 74 105
-248.964071 -144.851649 1446.805286 71 55 77
-344.169188 321.818638 1330.005360 49 43 65
-318.504071 147.553885 1366.440678 70 60 82
-318.504071 147.553885 1366.440678 70 60 82
-247.399735 -142.378640 1444.950199 123 97 113
-248.336673 -197.475183 1450.640106 87 70 102
-248.649669 -212.048507 1451.896095 90 74 107
-247.252607 -77.005786 1436.914444 47 39 50
-332.431293 292.607188 1339.239883 60 52 80
-247.264218 -79.615068 1436.198711 87 71 81
-246.379066 -147.541487 1443.627453 111 94 113
-245.896244 -193.581355 1448.461437 64 55 80
-245.896244 -193.581355 1448.461437 64 55 80
-245.006847 -145.792353 1443.233395 79 63 86
-245.006847 -145.792353 1443.233395 79 63 86
-329.801559 264.066100 1340.586567 18 19 25
-339.182901 295.019794 1330.957508 82 67 103
-327.743459 158.938277 1353.651524 107 87 132
-243.179488 -110.559118 1437.696362 44 35 47
-354.011989 191.200340 1331.472588 81 76 116
-243.446088 -170.677066 1442.834759 86 67 82
-271.617246 114.468408 1391.436577 39 29 70
-271.617246 114.468408 1391.436577 39 29 70
-241.843486 -145.303798 1439.731789 104 83 95
-242.271829 -177.813494 1442.578411 133 114 127
-242.271829 -177.813494 1442.578411 133 114 127
-325.240755 164.131677 1350.698471 38 35 54
-324.837708 168.484008 1350.320244 57 46 81
-324.837708 168.484008 1350.320244 57 46 81
-242.091417 -197.234774 1444.789600 121 105 131
-270.899940 107.350802 1389.877129 64 61 114
-323.957729 172.199512 1348.560047 98 80 131
-323.957729 172.199512 1348.560047 98 80 131
-274.865460 45.541173 1393.883038 36 30 74
-322.121263 181.194973 1348.180389 45 34 61
-324.113011 167.239106 1348.520947 105 88 133
-269.757700 109.946227 1389.052868 25 17 47
-240.660715 -173.401999 1439.873409 137 113 124
-322.844744 184.608781 1346.746254 101 81 128
-323.643756 177.752507 1346.391010 106 89 135
-240.419102 -213.162923 1442.479706 87 73 101
-320.878887 161.779249 1348.712921 103 86 130
-265.268278 93.265921 1389.667892 19 17 47
-237.648082 -227.128458 1442.251778 87 70 100
-326.008582 195.420885 1337.911892 81 76 116
-235.290575 -192.855573 1438.077736 65 43 69
-238.221288 -188.563204 1435.714817 121 99 123
-271.417212 76.709783 1383.008766 92 77 131
-235.158038 -228.012681 1439.424324 85 64 92
-271.073627 87.087899 1380.585003 23 20 59
-317.456007 180.719566 1340.976238 44 39 62
-317.456007 180.719566 1340.976238 44 39 62
-316.060662 178.011334 1340.547562 86 77 119
-326.032257 293.704200 1319.601631 62 52 81
-313.017845 154.656732 1341.376400 102 87 129
-312.577868 154.717207 1341.476154 102 87 129
-258.977437 108.405292 1379.053688 50 37 73
-312.219501 156.780136 1338.164425 43 37 55
-256.531715 66.050488 1381.694698 30 25 46
-263.379622 -28.417325 1388.128090 84 71 115
-339.930868 307.043743 1302.831078 18 20 20
-260.118604 -32.948878 1388.071060 32 26 64
-244.827104 -127.301311 1407.460403 24 24 54
