ply
format ascii 1.0
element vertex 722
property float x
property float y
property float z
property uchar blue
property uchar green
property uchar red
end_header
-969.049072265625 -1075.5250244140625 3776.775634765625 215 210 207
-973.2257080078125 -487.123809814453125 3742.255126953125 93 145 183
-973.2257080078125 -487.123809814453125 3742.255126953125 93 145 183
-997.35498046875 -676.2952880859375 3865.177978515625 171 193 198
-919.56732177734375 133.6324462890625 3534.865478515625 196 225 231
-918.4425048828125 -309.54833984375 3609.26806640625 64 70 71
-938.2939453125 -579.436279296875 3759.25341796875 69 112 147
-928.37152099609375 -503.284271240234375 3722.642578125 23 18 15
-890.90386962890625 -443.108551025390625 3606.59326171875 52 47 52
-905.9324951171875 -552.25341796875 3689.016357421875 86 78 109
-905.9324951171875 -552.25341796875 3689.016357421875 86 78 109
-844.2447509765625 -119.562362670898438 3482.115966796875 199 160 106
-861.48394775390625 -402.96783447265625 3628.9345703125 203 157 80
-768.44451904296875 85.0108108520507812 3181.250244140625 204 232 239
-853.09515380859375 -1188.945556640625 3834.703369140625 213 208 209
-800.806884765625 -52.8072776794433594 3501.49267578125 157 128 99
-851.368896484375 -821.88555908203125 3865.210693359375 202 200 199
-784.25677490234375 144.999465942382812 3471.241455078125 196 225 232
-1019.72808837890625 -1834.0177001953125 4898.744140625 195 193 192
-1019.72808837890625 -1834.0177001953125 4898.744140625 195 193 192
-809.30621337890625 -649.70428466796875 3759.217041015625 200 206 202
-813.7669677734375 -631.17230224609375 3816.587158203125 86 132 159
-795.45849609375 -329.98773193359375 3703.38134765625 83 76 255
-822.3121337890625 -358.53875732421875 3893.324951171875 83 71 254
-759.2373046875 -307.72686767578125 3551.146240234375 78 71 255
-737.66094970703125 1.22530519962310791 3413.746337890625 138 171 178
-728.78460693359375 -392.64752197265625 3405.984375 177 108 27
-737.47650146484375 -93.7515029907226562 3457.005615234375 116 195 219
-787.562255859375 -1414.7406005859375 3892.4736328125 207 204 205
-678.4908447265625 -103.749290466308594 3180.503173828125 115 191 220
-770.4630126953125 -615.14990234375 3745.914794921875 193 213 226
-709.48919677734375 144.483856201171875 3371.92236328125 198 226 231
-656.2451171875 -1437.9034423828125 3303.90283203125 172 179 180
-743.0986328125 -140.233078002929688 3660.970703125 87 98 227
-653.4874267578125 -70.7516098022460938 3161.398681640625 171 105 35
-735.97369384765625 43.8984222412109375 3629.072509765625 183 118 42
-696.74560546875 -112.581344604492188 3451.6826171875 139 179 190
-778.90289306640625 -1328.5947265625 4077.26220703125 213 211 213
-681.52178955078125 -30.0486602783203125 3396.08447265625 186 122 42
-688.06280517578125 -439.2279052734375 3498.994384765625 180 116 47
-719.54901123046875 -485.432952880859375 3747.116943359375 185 108 38
-762.62744140625 -1377.62939453125 4141.716796875 69 98 127
-762.62744140625 -1377.62939453125 4141.716796875 69 98 127
-715.552490234375 -750.569580078125 3805.8798828125 105 122 131
-690.4239501953125 -640.508544921875 3760.52978515625 176 223 248
-736.46270751953125 -1450.4327392578125 4178.88623046875 212 210 209
-737.49493408203125 -1337.4163818359375 4197.2353515625 212 212 211
-665.58123779296875 -865.9332275390625 3899.21142578125 209 226 224
-699.0980224609375 -1682.178466796875 4351.20654296875 21 193 228
-647.25439453125 -1002.035888671875 3918.275390625 166 221 227
-649.200927734375 -941.49591064453125 3936.366943359375 198 224 228
-714.3544921875 -1790.240478515625 4534.966796875 191 193 197
-594.72119140625 -254.289749145507812 3541.57763671875 84 82 255
-638.24407958984375 -1180.708984375 4052.602783203125 3 204 244
-580.4927978515625 -286.0001220703125 3520.248779296875 71 69 255
-639.85400390625 -1573.4058837890625 4173.44677734375 54 208 241
-639.85400390625 -1573.4058837890625 4173.44677734375 54 208 241
-622.5443115234375 -1419.17919921875 4132.2080078125 129 206 217
-621.5294189453125 -1359.232177734375 4145.81982421875 31 155 192
-621.5294189453125 -1359.232177734375 4145.81982421875 31 155 192
-599.6722412109375 -1117.0299072265625 3968.91162109375 86 233 255
-518.79217529296875 -212.26959228515625 3317.189453125 74 70 255
-574.16497802734375 -1161.208251953125 4031.21826171875 24 197 230
-534.49652099609375 -684.45977783203125 3732.68115234375 91 112 119
-535.3304443359375 -208.644775390625 3714.117919921875 78 77 255
-542.71368408203125 -1271.437744140625 4087.6064453125 214 213 215
-537.749267578125 -1262.5765380859375 4069.2890625 215 214 213
-544.14361572265625 -1439.552001953125 4194.08203125 214 214 212
-518.426513671875 -1316.8824462890625 4137.35498046875 74 97 116
-492.90447998046875 -684.54339599609375 3828.157470703125 84 98 107
-462.591217041015625 -263.183746337890625 3485.037109375 84 77 255
-493.10931396484375 -822.97955322265625 3889.203369140625 82 102 111
-493.10931396484375 -822.97955322265625 3889.203369140625 82 102 111
-496.109344482421875 -1334.439697265625 4126.11767578125 220 214 216
-489.33123779296875 -1358.1953125 4116.50341796875 67 94 125
-494.0255126953125 -318.917572021484375 4252.89697265625 84 76 255
-431.97625732421875 -331.550628662109375 3671.155517578125 71 66 255
-370.022216796875 -289.771331787109375 3206.019287109375 87 81 255
-408.581451416015625 -657.613037109375 3740.805908203125 196 197 196
-408.581451416015625 -657.613037109375 3740.805908203125 196 197 196
-388.430511474609375 -98.6256332397460938 3502.59130859375 181 128 71
-400.19036865234375 -425.298492431640625 4023.85107421875 182 114 47
-366.720458984375 -789.6998291015625 3952.320068359375 190 189 190
-367.686065673828125 -690.27215576171875 3932.43603515625 188 189 187
-362.02960205078125 -903.9808349609375 4004.1328125 196 194 193
-331.71722412109375 -44.4742393493652344 3410.16357421875 181 131 76
-358.807220458984375 -646.91802978515625 4031.730224609375 187 190 187
-325.2550048828125 -583.73834228515625 3852.900634765625 182 118 46
-312.68121337890625 -155.486587524414062 3554.343017578125 91 86 250
-299.887847900390625 46.9169502258300781 3352.13134765625 174 131 78
-304.19525146484375 3.29155373573303223 3491.47119140625 176 125 68
-302.9901123046875 -114.763938903808594 3588.988525390625 174 121 66
-295.25640869140625 -220.243911743164062 3662.79150390625 96 89 246
-288.622161865234375 -303.647125244140625 3642.365966796875 100 96 234
-271.307403564453125 -32.2931747436523438 3507.6044921875 162 155 143
-271.06707763671875 -111.494827270507812 3593.36279296875 139 151 153
-260.75726318359375 39.7197685241699219 3429.623046875 207 203 200
-266.37054443359375 -168.449859619140625 3625.24755859375 24 17 191
-266.37054443359375 -168.449859619140625 3625.24755859375 24 17 191
-266.37054443359375 -168.449859619140625 3625.24755859375 24 17 191
-246.598785400390625 -637.5673828125 2951.264404296875 188 186 185
-255.362579345703125 -80.6002731323242188 3624.74169921875 19 22 27
-237.115447998046875 -1266.300537109375 3652.718017578125 213 211 209
-252.102828979492188 9.39524555206298828 3576.679931640625 68 67 82
-236.384933471679688 121.644447326660156 3388.18896484375 196 209 211
-233.777694702148438 -241.822463989257812 3644.968017578125 162 164 165
-204.027130126953125 97.6631927490234375 3342.845947265625 196 214 213
-200.531356811523438 -78.623504638671875 3623.738525390625 21 19 20
-189.704559326171875 87.9347152709960938 3384.29443359375 203 222 221
-179.123428344726562 -141.820755004882812 3714.80419921875 82 83 123
-165.413406372070312 -8.05820560455322266 3580.476806640625 62 60 79
-129.961929321289062 -218.933349609375 3772.54638671875 126 131 135
-125.159797668457031 -113.197349548339844 3694.415771484375 126 129 134
-119.180892944335938 -402.3128662109375 3807.314697265625 37 30 34
-119.180892944335938 -402.3128662109375 3807.314697265625 37 30 34
-111.331680297851562 -896.18603515625 4039.561767578125 179 180 180
-105.28155517578125 -531.45306396484375 3849.534912109375 32 31 36
-105.28155517578125 -531.45306396484375 3849.534912109375 32 31 36
-109.4091796875 22.0857391357421875 3703.921142578125 145 140 143
-91.4800567626953125 -1073.9051513671875 4116.947265625 180 178 178
-104.120758056640625 97.593292236328125 3404.521240234375 138 140 142
-101.621124267578125 -52.868988037109375 3532.6328125 38 30 39
-80.49322509765625 -863.24853515625 4063.552001953125 42 31 33
-52.4615898132324219 -1239.160400390625 4299.8388671875 150 141 160
-52.4615898132324219 -1239.160400390625 4299.8388671875 150 141 160
-70.074554443359375 -83.6163482666015625 3879.63671875 57 59 64
-63.6369476318359375 -129.424087524414062 3743.787841796875 111 102 107
-48.914886474609375 -671.810546875 3992.49755859375 172 162 132
-56.1238822937011719 -284.336151123046875 3804.412109375 32 26 29
-42.1391830444335938 -1024.6820068359375 4147.8056640625 97 85 92
-55.8235588073730469 -178.6031494140625 3719.63037109375 31 25 30
-41.7727737426757812 -951.06494140625 4080.13427734375 35 26 29
-38.4945945739746094 -1110.298095703125 4173.62158203125 58 55 81
-35.8896255493164062 -1211.2584228515625 4217.80419921875 158 140 152
-29.8989677429199219 -1342.64111328125 4333.7734375 204 202 207
-32.8751907348632812 -801.3204345703125 3865.7607421875 159 152 132
-33.7922821044921875 -45.9788322448730469 3655.453857421875 129 134 143
-37.8693809509277344 100.99139404296875 3545.56689453125 155 159 159
-36.2315940856933594 50.1011734008789062 3556.780517578125 138 138 139
-5.65217447280883789 -1000.463134765625 4125.1123046875 160 155 152
-17.4059810638427734 -446.52947998046875 3872.242431640625 169 171 169
3.88447380065917969 -1332.970947265625 4306.6640625 205 204 203
-6.57170724868774414 -688.4620361328125 3959.22998046875 65 66 66
10.6781091690063477 -1296.245361328125 4259.01513671875 86 103 140
2.80477142333984375 -809.24090576171875 4051.582275390625 57 59 49
-16.1460456848144531 0.955094873905181885 3624.6787109375 29 29 22
-6.35962581634521484 84.973968505859375 3526.65966796875 130 127 128
27.3985214233398438 -1256.3734130859375 4202.3974609375 156 153 158
28.2150745391845703 -1016.39593505859375 4141.95849609375 136 134 133
32.2350196838378906 -407.382781982421875 3880.818603515625 160 167 162
47.9933815002441406 -813.8759765625 4126.05859375 105 103 103
27.2108516693115234 -2.54181027412414551 3694.89599609375 103 110 110
36.6743011474609375 -162.753021240234375 3691.032470703125 125 122 104
62.1262855529785156 -1002.8447265625 4113.69384765625 159 156 157
72.8814697265625 -1197.81640625 4250.3388671875 156 153 150
39.7498283386230469 -43.0360870361328125 3678.2578125 17 13 10
39.7498283386230469 -43.0360870361328125 3678.2578125 17 13 10
51.7191162109375 -237.9967041015625 3777.569580078125 125 125 124
55.3754386901855469 -329.736602783203125 3803.11083984375 171 165 158
62.3951911926269531 -368.4036865234375 3865.154296875 19 15 26
62.3951911926269531 -368.4036865234375 3865.154296875 19 15 26
72.710784912109375 -679.7525634765625 4025.116455078125 49 44 51
72.8459091186523438 -560.3905029296875 3968.54736328125 38 32 36
85.8038101196289062 -871.340087890625 4091.537109375 131 134 129
90.1229400634765625 -914.81640625 4083.025390625 35 24 28
106.855514526367188 -1309.15185546875 4322.76025390625 182 165 173
64.8695755004882812 48.5871925354003906 3638.083984375 121 117 122
84.3198318481445312 -304.66064453125 3914.040283203125 118 112 103
71.2399749755859375 8.02029991149902344 3649.202392578125 86 86 93
119.401191711425781 -1283.62451171875 4323.658203125 49 39 41
119.893684387207031 -1137.0389404296875 4373.712890625 142 133 123
128.195205688476562 -1277.9288330078125 4480.5390625 134 125 124
114.309295654296875 -1032.051025390625 4218.46875 152 146 145
110.347953796386719 -79.9815826416015625 3760.820068359375 191 166 168
118.552330017089844 -330.39971923828125 3850.88916015625 190 169 169
118.552330017089844 -330.39971923828125 3850.88916015625 190 169 169
114.726493835449219 -175.539459228515625 3762.033447265625 189 168 162
172.746475219726562 -1455.13525390625 4496.99365234375 192 191 192
155.69818115234375 -1113.8564453125 4241.529296875 200 178 181
161.4739990234375 -1278.6324462890625 4282.62109375 221 202 204
161.4739990234375 -1278.6324462890625 4282.62109375 221 202 204
145.704788208007812 -659.6156005859375 4094.221435546875 175 173 170
145.704788208007812 -659.6156005859375 4094.221435546875 175 173 170
145.308761596679688 -444.067230224609375 3906.443115234375 144 150 150
130.113739013671875 -12.1742229461669922 3727.357421875 22 13 56
136.036773681640625 -215.018112182617188 3740.23779296875 108 86 84
127.29095458984375 62.3222465515136719 3647.517333984375 131 129 130
157.072494506835938 -646.54864501953125 4001.222900390625 51 139 91
132.850875854492188 -58.339691162109375 3696.795654296875 16 5 16
132.850875854492188 -58.339691162109375 3696.795654296875 16 5 16
170.072280883789062 -831.64398193359375 4117.9375 42 30 42
187.34783935546875 -1234.6488037109375 4307.6240234375 117 110 104
152.659088134765625 -361.997406005859375 3887.739501953125 62 59 60
152.659088134765625 -361.997406005859375 3887.739501953125 62 59 60
184.905975341796875 -1135.01611328125 4259.935546875 124 107 100
192.234649658203125 -1315.7503662109375 4338.53662109375 102 77 90
156.797576904296875 -362.733489990234375 3898.955078125 62 59 60
121.85552978515625 -21.9030628204345703 3404.091552734375 39 38 57
148.546188354492188 -149.87054443359375 3708.103515625 110 91 84
182.64990234375 -666.44451904296875 4026.58349609375 78 175 130
200.6639404296875 -793.379150390625 4112.74755859375 39 28 45
189.87786865234375 -411.682830810546875 3864.728271484375 138 146 145
223.72698974609375 -1013.3363037109375 4187.00390625 72 63 62
248.086029052734375 -1403.2625732421875 4452.71044921875 76 98 119
214.463302612304688 -647.62432861328125 4037.297119140625 25 128 75
214.463302612304688 -647.62432861328125 4037.297119140625 25 128 75
227.001327514648438 -924.84271240234375 4156.65869140625 28 19 21
197.378402709960938 -180.803375244140625 3866.5322265625 106 89 88
203.837554931640625 -389.245941162109375 3892.25732421875 147 151 151
197.37249755859375 -259.726654052734375 3778.90966796875 118 102 97
257.78497314453125 -1138.006103515625 4231.86181640625 137 134 125
312.079132080078125 -1904.3856201171875 4788.44287109375 154 153 157
209.21649169921875 -101.892486572265625 3714.66015625 102 86 82
248.101715087890625 -665.46453857421875 4046.2041015625 180 192 161
238.449905395507812 -467.772613525390625 3934.409423828125 41 38 45
254.9549560546875 -727.96685791015625 4074.695556640625 40 58 77
279.85626220703125 -1096.78759765625 4268.79736328125 148 142 135
273.656036376953125 -855.782958984375 4167.50390625 46 49 63
240.968246459960938 -205.692718505859375 3792.23779296875 106 95 87
213.462783813476562 136.942245483398438 3518.2861328125 141 141 131
259.33599853515625 -494.563629150390625 3962.234130859375 96 96 99
246.357467651367188 -321.160003662109375 3759.55859375 183 176 169
312.01812744140625 -1347.973876953125 4332.89697265625 185 135 121
255.977249145507812 -173.250457763671875 3828.4091796875 135 128 131
251.825668334960938 -99.0429840087890625 3767.751708984375 88 76 67
238.6424560546875 61.1835899353027344 3589.895263671875 128 124 123
283.370361328125 -409.22265625 3903.8466796875 54 59 64
258.892791748046875 37.2384681701660156 3700.678955078125 126 122 127
281.61932373046875 -227.905624389648438 3909.77099609375 109 93 90
312.46832275390625 -960.07635498046875 4149.35205078125 209 193 191
312.23150634765625 -730.51361083984375 4096.03857421875 140 126 110
318.949676513671875 -789.92608642578125 4141.1455078125 38 27 44
279.906951904296875 113.159347534179688 3844.849365234375 140 137 138
323.710662841796875 -915.73736572265625 4152.349609375 55 44 47
361.7457275390625 -1387.740478515625 4405.26171875 54 53 79
366.959503173828125 -1258.805419921875 4464.08984375 100 92 86
368.911895751953125 -1429.6717529296875 4439.43017578125 170 171 170
364.81988525390625 -1125.6932373046875 4397.51416015625 162 158 157
329.9278564453125 -763.465576171875 4082.2626953125 42 31 47
344.31463623046875 -900.95928955078125 4202.75390625 47 40 39
337.724609375 -686.10076904296875 4144.41162109375 56 37 25
399.00469970703125 -1497.7132568359375 4586.8603515625 179 180 178
314.3505859375 -361.516632080078125 3877.351806640625 44 37 42
287.061004638671875 90.370849609375 3644.5751953125 163 157 158
397.26007080078125 -1382.347900390625 4377.7373046875 25 38 68
309.23004150390625 74.7311325073242188 3700.345703125 124 124 122
332.33563232421875 -332.21197509765625 3872.9140625 161 149 143
307.20654296875 -33.5953788757324219 3666.558837890625 184 165 168
398.4998779296875 -1220.407958984375 4371.46240234375 126 130 123
478.369415283203125 -1872.92578125 4995.34130859375 155 166 165
366.8424072265625 -739.43341064453125 4062.68017578125 129 134 135
398.906158447265625 -1159.1802978515625 4289.9677734375 139 148 142
447.649658203125 -1593.1201171875 4654.00927734375 173 173 173
447.649658203125 -1593.1201171875 4654.00927734375 173 173 173
446.37322998046875 -1620.068115234375 4617.48388671875 170 171 171
418.89495849609375 -1657.6995849609375 4345.7314453125 149 160 160
393.39044189453125 -780.98345947265625 4180.4013671875 21 14 19
359.56805419921875 -156.53350830078125 3884.569580078125 113 104 104
426.5772705078125 -1230.3424072265625 4349.63037109375 82 81 76
406.812042236328125 -832.3251953125 4155.0771484375 30 22 32
368.892181396484375 -341.5806884765625 3833.94482421875 59 40 44
370.199310302734375 -237.637786865234375 3846.06591796875 96 91 91
385.040802001953125 -323.88818359375 3952.553955078125 132 129 125
352.12451171875 68.6003494262695312 3671.183349609375 120 120 118
336.92218017578125 138.7655029296875 3514.527099609375 129 130 130
500.230133056640625 -1755.047607421875 4687.7431640625 150 158 159
362.72369384765625 99.5924148559570312 3533.83935546875 129 125 128
362.72369384765625 99.5924148559570312 3533.83935546875 129 125 128
439.56109619140625 -959.78558349609375 4054.28466796875 116 112 110
489.619384765625 -1183.6602783203125 4362.11328125 56 54 55
541.149169921875 -1600.921875 4664.54638671875 169 171 170
511.19073486328125 -1272.3011474609375 4452.53857421875 44 34 38
512.8427734375 -1314.088134765625 4440.63623046875 71 44 44
475.09063720703125 -784.34173583984375 4186.1396484375 54 44 24
414.66827392578125 6.48730325698852539 3784.6259765625 41 42 42
508.638275146484375 -1464.4677734375 4379.7548828125 156 160 161
471.5260009765625 -751.185302734375 4145.11181640625 116 127 135
571.10205078125 -1668.99755859375 4763.90625 162 168 167
484.9149169921875 -838.05615234375 4130.30029296875 75 68 69
516.38671875 -1015.38629150390625 4272.68994140625 84 70 67
498.055023193359375 -761.03790283203125 4156.80517578125 88 73 72
553.578369140625 -1435.096923828125 4501.951171875 44 75 116
455.1021728515625 -28.5984153747558594 3766.563720703125 178 153 149
514.35540771484375 -621.27459716796875 4120.74365234375 186 165 168
620.745361328125 -1810.5252685546875 4770.29443359375 90 117 120
620.745361328125 -1810.5252685546875 4770.29443359375 90 117 120
578.12841796875 -1506.8575439453125 4472.61181640625 161 166 168
578.689697265625 -1295.18017578125 4482.0009765625 205 176 178
592.896728515625 -1375.229736328125 4554.482421875 207 180 175
495.43829345703125 35.680816650390625 3849.8447265625 127 129 136
596.372314453125 -36.3046455383300781 3979.297607421875 124 138 140
-1886.722900390625 -784.91461181640625 3471.417724609375 177 188 146
-1839.5576171875 -516.29541015625 3362.664306640625 176 159 119
-1839.5576171875 -516.29541015625 3362.664306640625 176 159 119
-1817.1380615234375 -472.675506591796875 3360.02587890625 200 192 172
-1866.980224609375 -699.86358642578125 3484.92236328125 174 190 154
-1978.023193359375 -1199.1883544921875 3840.706298828125 164 135 77
-1978.023193359375 -1199.1883544921875 3840.706298828125 164 135 77
-1822.3905029296875 -767.501708984375 3524.589111328125 123 97 56
-1772.0916748046875 -576.29327392578125 3407.630126953125 128 159 159
-1772.0916748046875 -576.29327392578125 3407.630126953125 128 159 159
-1868.23876953125 -1056.1585693359375 3703.757568359375 164 136 88
-1731.043212890625 -468.08709716796875 3368.89990234375 187 245 249
-2075.7578125 -1191.31103515625 4237.05615234375 151 124 65
-1788.00244140625 -845.67987060546875 3564.48291015625 171 144 97
-1708.0716552734375 -446.1170654296875 3352.9345703125 38 49 68
-1730.5623779296875 -614.65679931640625 3428.041015625 54 36 17
-1868.980224609375 -969.28546142578125 3785.638427734375 154 130 85
-1783.68017578125 -1020.7784423828125 3598.259033203125 151 121 72
-1635.8583984375 -243.6561279296875 3203.363037109375 7 9 23
-1865.0875244140625 -1248.631103515625 3820.689697265625 173 142 102
-1756.6229248046875 -742.537841796875 3536.37353515625 159 135 91
-1622.66162109375 -311.2686767578125 3192.458740234375 23 30 38
-1826.8272705078125 -1011.44049072265625 3725.40576171875 150 122 76
-1826.8272705078125 -1011.44049072265625 3725.40576171875 150 122 76
-1788.1231689453125 -894.7452392578125 3626.807861328125 155 131 83
-1599.2806396484375 -25.6515445709228516 3119.94189453125 9 17 11
-1593.42041015625 -287.5430908203125 3136.94287109375 55 120 157
-1709.486572265625 -597.154296875 3441.682861328125 165 189 192
-1709.486572265625 -597.154296875 3441.682861328125 165 189 192
-1718.23486328125 -659.42041015625 3473.536376953125 157 136 88
-1655.693115234375 -429.04425048828125 3319.392333984375 49 172 230
-1880.045166015625 -1287.4051513671875 3926.85888671875 152 122 67
-1601.6695556640625 -117.226539611816406 3180.017578125 19 41 40
-1601.6695556640625 -117.226539611816406 3180.017578125 19 41 40
-1559.3458251953125 67.0477828979492188 3067.518798828125 77 125 109
-1667.0858154296875 -684.514404296875 3406.52880859375 151 125 78
-1544.002685546875 96.2489166259765625 3070.133544921875 35 57 51
-1875.244140625 -1425.969482421875 4000.4462890625 164 133 84
-1586.967529296875 -339.0069580078125 3241.1904296875 129 144 148
-1566.8917236328125 -146.856277465820312 3176.227783203125 12 17 19
-1655.057373046875 -558.0068359375 3441.57666015625 83 83 82
-1624.999267578125 -424.716552734375 3359.079833984375 54 181 239
-1589.8719482421875 -358.1304931640625 3307.011474609375 60 62 62
-1589.8719482421875 -358.1304931640625 3307.011474609375 60 62 62
-1636.1287841796875 -598.42474365234375 3450.5458984375 176 132 66
-1616.8480224609375 -497.675506591796875 3407.581298828125 90 178 221
-1570.8121337890625 -305.713226318359375 3279.111083984375 142 173 171
-1624.079833984375 -529.901611328125 3430.38623046875 172 126 65
-1539.7659912109375 -174.938705444335938 3212.316162109375 4 18 2
-1539.7659912109375 -174.938705444335938 3212.316162109375 4 18 2
-1714.78271484375 -722.92578125 3698.594970703125 143 119 68
-1540.42724609375 -202.674697875976562 3223.826171875 93 228 54
-1617.6900634765625 -576.14263916015625 3473.72509765625 77 65 60
-1585.41650390625 -748.0064697265625 3415.2255859375 115 98 56
-1470.4437255859375 82.5788345336914062 3054.19482421875 25 28 28
-1576.6612548828125 -489.81207275390625 3382.5390625 29 33 36
-1479.3951416015625 -26.9222087860107422 3100.194091796875 71 127 122
-1523.14013671875 -240.08953857421875 3229.451416015625 19 25 16
-1628.276611328125 -682.19488525390625 3553.1767578125 148 124 77
-1606.1981201171875 -783.82861328125 3519.740966796875 156 131 82
-1534.4853515625 -96.7721786499023438 3286.5791015625 30 61 59
-1555.79248046875 -453.723907470703125 3386.835205078125 47 53 53
-1556.7218017578125 -495.889556884765625 3396.9814453125 154 175 170
-1450.0985107421875 107.418418884277344 3070.11328125 38 62 62
-1454.8565673828125 46.0900993347167969 3102.034423828125 49 93 84
-1472.697021484375 -46.8097305297851562 3156.673828125 67 129 116
-1472.697021484375 -46.8097305297851562 3156.673828125 67 129 116
-1523.9229736328125 -363.79010009765625 3351.43017578125 31 32 33
-1450.970703125 -18.1972503662109375 3133.2919921875 75 128 122
-1715.470458984375 -1457.13671875 4005.5419921875 156 125 76
-1682.3148193359375 -1289.287109375 3920.39599609375 158 125 85
-1531.154541015625 -629.45648193359375 3463.179443359375 160 128 84
-1537.88427734375 -507.370849609375 3510.799072265625 31 27 30
-1657.8779296875 -1486.804443359375 3946.160400390625 167 137 93
-1630.7244873046875 -1157.368896484375 3872.699462890625 172 141 95
-1380.58935546875 108.462348937988281 3085.9794921875 21 21 19
-1402.468017578125 -104.430023193359375 3192.007080078125 88 120 114
-1496.84130859375 -631.50640869140625 3518.62255859375 147 118 69
-1398.7188720703125 -50.1444206237792969 3204.767333984375 71 95 96
-1363.637451171875 90.075164794921875 3099.050048828125 51 68 76
-1350.640380859375 74.56298828125 3110.970458984375 7 13 8
-1391.0164794921875 -71.5572433471679688 3248.213134765625 10 11 2
-1286.4267578125 -255.40118408203125 3004.998046875 31 31 24
-1332.9970703125 112.543853759765625 3098.302001953125 12 16 18
-1431.545654296875 -680.9423828125 3465.7919921875 158 142 114
-1430.9571533203125 -535.64080810546875 3464.4150390625 44 37 31
-1372.30029296875 -54.6621856689453125 3269.08251953125 7 6 3
-1426.9849853515625 -777.15325927734375 3529.494873046875 156 132 84
-1401.1357421875 -727.74444580078125 3450.641357421875 128 104 62
-1445.0450439453125 -674.6871337890625 3601.350341796875 79 126 155
-1326.04833984375 21.3760166168212891 3192.55908203125 20 21 19
-1298.7237548828125 67.9735641479492188 3149.216552734375 12 13 18
-1394.665771484375 -518.02880859375 3497.46240234375 27 31 32
-1353.8555908203125 -580.8648681640625 3468.046875 105 144 175
-1511.923828125 -1113.097900390625 4007.125 140 109 59
-1429.866455078125 -968.703857421875 3748.333251953125 137 105 63
-1248.6683349609375 -49.1374320983886719 3099.167724609375 6 7 0
-1439.5941162109375 -1037.4658203125 3791.474853515625 135 102 62
-1349.153564453125 -505.181976318359375 3471.010986328125 103 146 165
-1349.153564453125 -505.181976318359375 3471.010986328125 103 146 165
-1356.90283203125 -700.38726806640625 3535.08837890625 104 76 39
-1282.84619140625 -214.952606201171875 3296.9794921875 54 58 55
-1282.84619140625 -214.952606201171875 3296.9794921875 54 58 55
-1403.2298583984375 -939.64727783203125 3754.808349609375 161 132 86
-1254.1407470703125 -79.71124267578125 3205.02734375 25 25 15
-1324.1021728515625 -518.0072021484375 3499.8955078125 12 23 25
-1340.6552734375 -737.18603515625 3637.888671875 131 100 55
-1270.41650390625 -230.116912841796875 3361.53515625 49 47 47
-1279.5833740234375 -428.488739013671875 3482.69580078125 27 27 26
-1293.5986328125 -830.63775634765625 3643.04736328125 124 93 50
-1281.4794921875 -596.17010498046875 3580.705322265625 85 136 168
-1256.738037109375 -516.18292236328125 3498.6259765625 95 124 143
-1204.6885986328125 -257.65020751953125 3318.369384765625 21 24 23
-1204.6885986328125 -257.65020751953125 3318.369384765625 21 24 23
-1352.1085205078125 -1279.19921875 3974.782958984375 162 130 87
-1317 -1081.5069580078125 3837.403076171875 158 128 81
-1215.7386474609375 -208.632247924804688 3390.7421875 48 58 57
-1230.341064453125 -579.6824951171875 3527.2705078125 213 227 227
-1198.25146484375 -290.656982421875 3402.520263671875 50 56 56
-1119.1982421875 -25.6287994384765625 3098.109375 34 33 26
-1187.9705810546875 -328.363525390625 3386.224853515625 60 64 58
-1209.8731689453125 -69.6544723510742188 3462.03759765625 33 36 36
-1212.1976318359375 -557.51995849609375 3539.036865234375 182 199 203
-1187.217041015625 -484.545654296875 3443.4482421875 194 234 233
-1187.4945068359375 -744.3358154296875 3479.828369140625 133 104 68
-1230.3206787109375 -405.83612060546875 3611.44189453125 62 65 62
-1238.8675537109375 -837.16888427734375 3736.830810546875 96 73 44
-1124.371826171875 -217.120773315429688 3262.632080078125 39 41 38
-1227.4366455078125 -721.82257080078125 3721.687744140625 108 166 196
-1204.9049072265625 -741.27056884765625 3663.88818359375 135 110 81
-1185.3914794921875 -553.278564453125 3644.58154296875 134 127 55
-1145.0146484375 -506.203033447265625 3490.108154296875 138 124 40
-1139.8348388671875 -565.39825439453125 3530.27294921875 180 181 191
-1145.8348388671875 -484.303131103515625 3569.484619140625 155 144 94
-1127.6717529296875 -536.455078125 3568.1689453125 91 96 99
-1117.84033203125 -505.71588134765625 3534.5673828125 87 77 49
-1087.529296875 -384.896820068359375 3430.25244140625 68 67 68
-1087.529296875 -384.896820068359375 3430.25244140625 68 67 68
-1050.6427001953125 -224.699310302734375 3288.0146484375 44 40 39
-1126.523681640625 -717.2115478515625 3684.443359375 20 35 60
-1016.3905029296875 156.44232177734375 3197.739013671875 181 210 217
-1009.18902587890625 50.6679191589355469 3226.599609375 197 222 232
-1009.18902587890625 50.6679191589355469 3226.599609375 197 222 232
-1106.4637451171875 -644.92999267578125 3744.23291015625 180 186 191
-1072.364501953125 -660.52874755859375 3620.322509765625 63 102 134
-1059.30810546875 -475.573883056640625 3584.0556640625 127 169 190
-963.81768798828125 67.3027267456054688 3183.151123046875 174 206 211
-1064.544921875 -707.1715087890625 3727.085205078125 28 61 91
-967.1168212890625 64.9679107666015625 3196.858642578125 181 211 218
-1076.228271484375 -540.66961669921875 3767.19677734375 70 128 163
-917.4583740234375 58.9389801025390625 3008.15478515625 172 204 209
-1043.3416748046875 -1152.04443359375 4088.50146484375 203 201 196
-955.15643310546875 -392.5714111328125 3554.189697265625 50 44 54
-955.15643310546875 -392.5714111328125 3554.189697265625 50 44 54
-964.70001220703125 -649.594482421875 3689.136962890625 161 182 189
-943.04046630859375 -477.07366943359375 3612.969482421875 80 134 174
-954.77752685546875 -430.84405517578125 3699.103271484375 63 65 65
-902.0201416015625 -306.6888427734375 3539.08544921875 59 59 62
-922.496337890625 -573.5286865234375 3688.85009765625 58 108 140
-864.1688232421875 113.445320129394531 3296.66943359375 186 216 222
-898.7225341796875 -492.019134521484375 3589.612548828125 25 13 12
-904.05767822265625 -552.13885498046875 3681.892822265625 60 67 95
-904.05767822265625 -552.13885498046875 3681.892822265625 60 67 95
-825.53729248046875 -395.8118896484375 3459.4833984375 190 147 73
-828.71630859375 -877.22491455078125 3714.031982421875 191 191 188
-925.65411376953125 -1695.9683837890625 4431.8779296875 180 179 180
-873.35174560546875 -1367.8509521484375 4096.1015625 192 193 187
-794.5858154296875 -698.76678466796875 3521.7998046875 191 189 186
-837.805908203125 -809.4896240234375 3799.953857421875 193 188 186
-770.78082275390625 -55.5791015625 3354.25634765625 158 118 78
-808.49761962890625 -650.6002197265625 3755.812744140625 190 193 194
-861.8682861328125 -1623.6256103515625 4298.853515625 190 190 190
-803.5169677734375 -625.26373291015625 3762.791015625 82 120 154
-837.79583740234375 -1616.2996826171875 4181.78466796875 184 186 186
-860.28955078125 -1723.5269775390625 4338.61572265625 172 177 177
-791.56280517578125 -332.06201171875 3686.222900390625 73 66 246
-731.15472412109375 -336.74102783203125 3398.91748046875 60 64 239
-772.716552734375 -616.8936767578125 3760.546142578125 182 200 203
-728.44085693359375 1.92423832416534424 3370.68798828125 120 165 175
-732.393798828125 -93.3831710815429688 3433.011962890625 109 186 209
-729.4788818359375 -630.77423095703125 3668.8095703125 190 195 189
-728.20098876953125 -56.0990104675292969 3590.998046875 152 96 37
-779.55279541015625 -1409.455810546875 4245.25927734375 57 90 115
-779.55279541015625 -1409.455810546875 4245.25927734375 57 90 115
-709.82464599609375 -60.8011054992675781 3485.895263671875 156 95 39
-671.52398681640625 -114.958488464355469 3309.671875 112 175 193
-721.33935546875 -755.39703369140625 3843.783203125 95 124 135
-635.5867919921875 9.88348484039306641 3055.365478515625 171 110 32
-684.31610107421875 -27.2334613800048828 3416.538330078125 173 112 40
-684.31610107421875 -27.2334613800048828 3416.538330078125 173 112 40
-770.7781982421875 -1520.8812255859375 4402.626953125 198 199 194
-754.48724365234375 -1367.37109375 4307.5517578125 203 201 202
-675.791259765625 152.031539916992188 3455.95751953125 183 212 218
-691.69219970703125 -640.7457275390625 3772.304931640625 162 214 230
-686.7626953125 -635.44525146484375 3739.73046875 162 214 230
-752.435791015625 -1887.3023681640625 4808.80078125 169 184 191
-696.94671630859375 -1677.1444091796875 4324.37451171875 17 187 221
-671.418212890625 -872.55487060546875 3943.09765625 202 217 221
-655.0322265625 -680.15802001953125 3834.60009765625 75 110 125
-675.0020751953125 -1062.9549560546875 4124.6328125 140 208 221
-658.955078125 -1015.6395263671875 3993.7451171875 168 209 218
-658.955078125 -1015.6395263671875 3993.7451171875 168 209 218
-643.3753662109375 -931.25115966796875 3896.318359375 183 213 215
-697.33929443359375 -1722.9886474609375 4616.65625 31 196 227
-697.33929443359375 -1722.9886474609375 4616.65625 31 196 227
-653.023681640625 -1209.5089111328125 4164.04248046875 4 191 230
-643.3062744140625 -1468.166259765625 4288.99267578125 94 193 213
-603.33734130859375 -255.215545654296875 3612.904296875 71 69 255
-630.83966064453125 -1381.19775390625 4217.67431640625 37 147 184
-625.63311767578125 -1161.7852783203125 4173.47509765625 84 224 248
-576.16998291015625 -678.8787841796875 3830.402099609375 54 83 97
-563.65380859375 -765.3282470703125 3852.8837890625 75 92 104
-589.5867919921875 -151.607696533203125 4036.339111328125 65 62 254
-537.21490478515625 -690.3624267578125 3762.765869140625 78 99 107
-565.91241455078125 -1329.2508544921875 4303.59130859375 203 202 203
-563.5435791015625 -1495.33251953125 4376.0908203125 203 203 197
-559.38519287109375 -1396.4356689453125 4298.71435546875 48 77 101
-526.93023681640625 -669.0816650390625 3794.109619140625 57 81 94
-535.36834716796875 -1363.69775390625 4305.35546875 54 80 108
-517.06005859375 -1396.258544921875 4347.517578125 211 204 208
-493.83062744140625 -685.384033203125 3841.611083984375 77 90 98
-508.931884765625 -1417.947998046875 4325.7421875 67 90 114
-436.2520751953125 -332.64605712890625 3727.4208984375 57 55 255
-488.08746337890625 -2192.040771484375 5487.96142578125 173 175 177
-419.844757080078125 -674.38250732421875 3882.87158203125 184 185 183
-419.844757080078125 -674.38250732421875 3882.87158203125 184 185 183
-395.96343994140625 -302.012908935546875 3522.43505859375 71 72 255
-385.297607421875 -589.5406494140625 3596.23193359375 177 185 181
-382.436767578125 -98.9825286865234375 3448.92041015625 166 118 59
-360.532623291015625 -390.480712890625 3497.297607421875 169 104 40
-352.574798583984375 113.405502319335938 3252.9912109375 194 209 208
-340.958740234375 -29.5792140960693359 3578.790283203125 171 120 66
-328.990997314453125 63.0800971984863281 3349.188232421875 155 141 112
-319.124420166015625 -573.56329345703125 3766.893798828125 180 111 49
-359.27783203125 114.587997436523438 4373.34375 167 121 66
-316.7261962890625 -154.111663818359375 3638.7724609375 83 79 235
-318.072601318359375 71.09552001953125 3681.251220703125 170 124 64
-289.510345458984375 -217.266937255859375 3576.72509765625 90 82 226
-261.859954833984375 -1460.28955078125 4272.728515625 201 199 198
-274.499176025390625 -26.9324512481689453 3606.93505859375 162 144 119
-265.18426513671875 -165.936538696289062 3626.29541015625 20 14 182
-265.18426513671875 -165.936538696289062 3626.29541015625 20 14 182
-265.18426513671875 -165.936538696289062 3626.29541015625 20 14 182
-263.618896484375 47.4394874572753906 3517.2744140625 190 192 184
-248.534988403320312 -81.3274993896484375 3494.548828125 14 17 16
-247.675140380859375 10.0501155853271484 3508.460693359375 74 70 81
-243.865966796875 -50.3728561401367188 3529.393798828125 23 31 39
-234.336349487304688 -239.49615478515625 3693.110595703125 149 152 150
-238.877487182617188 131.7606201171875 3483.16943359375 182 197 198
-207.65399169921875 110.155990600585938 3474.214111328125 188 201 204
-198.015609741210938 -76.585357666015625 3579.439208984375 19 14 19
-191.070404052734375 97.6252593994140625 3470.257568359375 196 210 209
-186.859085083007812 -39.2513923645019531 3502.84765625 60 111 127
-176.920852661132812 -140.047592163085938 3665.180908203125 71 74 120
-127.5640869140625 -1181.29052734375 4405.47021484375 157 157 165
-162.268722534179688 -9.0446929931640625 3495.467041015625 36 39 59
-110.403106689453125 -898.8759765625 4062.263427734375 166 165 166
-128.23089599609375 -215.598709106445312 3728.925048828125 117 124 130
-90.9223403930664062 -1107.6907958984375 4275.1064453125 170 168 168
-118.166282653808594 -399.779571533203125 3807.716796875 26 21 25
-118.166282653808594 -399.779571533203125 3807.716796875 26 21 25
-103.599967956542969 -687.98052978515625 3954.64892578125 142 138 133
-123.245452880859375 -111.93084716796875 3616.318603515625 112 118 127
-104.321304321289062 -539.31048583984375 3964.626953125 30 26 28
-104.321304321289062 -539.31048583984375 3964.626953125 30 26 28
-84.8018035888671875 -785.08734130859375 4088.840087890625 83 70 57
-79.2805099487304688 -872.1964111328125 4129.14208984375 61 52 53
-51.3748703002929688 -1245.6226806640625 4326.51708984375 132 124 144
-100.601615905761719 -45.2265052795410156 3662.5537109375 34 30 38
-107.045074462890625 11.3919000625610352 3437.03564453125 126 122 124
-103.176712036132812 109.279808044433594 3508.1259765625 129 130 135
-26.5084896087646484 -1393.3355712890625 4528.833984375 190 188 190
-32.9342079162597656 -1250.6201171875 4383.0341796875 153 139 152
-35.8005180358886719 -1142.4644775390625 4327.30810546875 50 47 67
-39.2472381591796875 -1052.6351318359375 4290.15087890625 85 80 88
-50.279693603515625 -652.37652587890625 3866.00048828125 163 153 123
-55.1396598815917969 -278.82806396484375 3770.521240234375 27 23 25
-55.1396598815917969 -278.82806396484375 3770.521240234375 27 23 25
-28.457244873046875 -837.07177734375 4092.146240234375 142 132 129
-63.4558601379394531 -127.916419982910156 3624.75244140625 98 92 92
-3.46880292892456055 -1300.076171875 4401.244140625 149 151 157
-54.3790054321289062 -176.485687255859375 3716.027099609375 20 16 17
-0.732705652713775635 -1036.0855712890625 4309.05322265625 148 143 143
18.3514862060546875 -1368.67578125 4544.16552734375 72 91 132
-59.6466064453125 178.335250854492188 3426.89208984375 131 130 129
0.546428859233856201 -877.34765625 4181.341796875 39 12 8
-4.11916589736938477 -695.23663330078125 4033.29345703125 55 56 49
6.29319477081298828 -821.5830078125 4150.40283203125 53 52 37
-16.2197761535644531 -442.309661865234375 3862.658203125 151 161 156
37.8298263549804688 -1337.9356689453125 4531.9091796875 139 141 144
-33.133392333984375 -44.1225395202636719 3617.69677734375 117 124 128
-33.133392333984375 -44.1225395202636719 3617.69677734375 117 124 128
35.3399887084960938 -1099.009033203125 4310.048828125 144 145 143
34.0157699584960938 -1043.4771728515625 4290.81396484375 128 124 129
-14.3712072372436523 5.65748691558837891 3645.62451171875 21 21 16
72.6614990234375 -1412.22900390625 4512.56494140625 30 84 109
50.081085205078125 -810.84710693359375 4137.525390625 95 91 94
-3.88083505630493164 91.3247451782226562 3566.499267578125 119 116 116
72.3089065551757812 -1048.970458984375 4354.63916015625 150 146 148
78.9015655517578125 -1227.328369140625 4380.36962890625 146 143 139
32.840118408203125 -402.682861328125 3857.171630859375 159 161 160
53.895294189453125 -657.6236572265625 4032.71435546875 70 97 160
15.6729679107666016 125.652351379394531 3515.52880859375 140 140 141
117.678657531738281 -1361.933837890625 4533.85205078125 165 154 152
25.4330844879150391 -3.63880133628845215 3599.39697265625 98 93 102
37.4513015747070312 -160.361968994140625 3671.59765625 122 110 103
75.483612060546875 -679.9833984375 4055.161376953125 35 31 41
92.69921875 -890.9281005859375 4224.86181640625 134 133 131
98.942474365234375 -943.35009765625 4256.4150390625 29 18 20
59.8352737426757812 -329.4693603515625 3880.903564453125 158 150 149
76.6537933349609375 -562.31231689453125 4028.8017578125 30 26 29
53.764312744140625 -234.567214965820312 3784.491455078125 119 116 115
39.9350433349609375 -40.2160186767578125 3641.863525390625 15 5 5
39.9350433349609375 -40.2160186767578125 3641.863525390625 15 5 5
129.783493041992188 -1330.545654296875 4517.4814453125 50 34 40
133.003387451171875 -1286.7196044921875 4548.52734375 124 119 115
23.7404003143310547 172.276031494140625 3440.21044921875 148 146 144
61.7905120849609375 -363.21490478515625 3814.841796875 13 15 27
90.7417068481445312 -741.4404296875 4078.015869140625 50 43 63
97.4244918823242188 -834.2752685546875 4108.3251953125 49 44 40
66.8610076904296875 -130.035812377929688 3683.665771484375 91 74 65
81.8179779052734375 -294.858489990234375 3814.74072265625 105 97 95
74.76055908203125 -208.906387329101562 3724.233642578125 90 77 75
56.3095512390136719 148.756988525390625 3557.893310546875 132 130 129
67.2570724487304688 54.031707763671875 3657.875 110 107 109
174.7705078125 -1458.5809326171875 4519.07568359375 181 181 180
71.2926559448242188 10.2952413558959961 3617.340087890625 69 68 78
179.141433715820312 -1348.8128662109375 4569.35595703125 207 187 189
179.141433715820312 -1348.8128662109375 4569.35595703125 207 187 189
146.816802978515625 -655.531982421875 4088.852294921875 164 167 161
146.816802978515625 -655.531982421875 4088.852294921875 164 167 161
205.836822509765625 -1299.3934326171875 4579.7236328125 104 96 96
209.270355224609375 -1376.9471435546875 4583.619140625 87 62 69
205.062957763671875 -1198.0963134765625 4553.42041015625 112 95 93
115.736457824707031 -172.4881591796875 3752.135009765625 173 153 155
86.460540771484375 158.088760375976562 3490.68408203125 158 153 151
107.377120971679688 -78.1366653442382812 3674.9296875 179 155 157
174.100143432617188 -836.27593994140625 4166.154296875 34 29 37
162.24810791015625 -650.63818359375 4064.02978515625 47 125 84
141.06732177734375 -212.232086181640625 3800.878173828125 105 84 78
130.230499267578125 -99.7792205810546875 3703.95556640625 90 79 79
125.728897094726562 -13.009587287902832 3631.540283203125 17 12 48
125.728897094726562 -13.009587287902832 3631.540283203125 17 12 48
135.639266967773438 -53.6977119445800781 3718.845458984375 6 4 11
135.639266967773438 -53.6977119445800781 3718.845458984375 6 4 11
127.452339172363281 64.7965240478515625 3622.202392578125 120 117 118
188.68109130859375 -671.81024169921875 4096.2880859375 74 161 115
126.509681701660156 154.004623413085938 3622.1962890625 135 132 128
263.78802490234375 -1452.97607421875 4646.92529296875 59 86 109
233.400131225585938 -1112.05859375 4351.685546875 83 79 75
142.692703247070312 -145.691192626953125 3596.451171875 95 76 70
202.046417236328125 -416.40411376953125 4004.16796875 128 139 130
163.40606689453125 -99.9623565673828125 3654.097412109375 96 88 81
218.26019287109375 -647.36529541015625 4068.877685546875 21 109 47
218.26019287109375 -647.36529541015625 4068.877685546875 21 109 47
279.5089111328125 -1192.7862548828125 4484.14208984375 134 125 120
190.076583862304688 -195.03094482421875 3793.946533203125 93 84 79
190.122283935546875 -176.75091552734375 3747.568603515625 91 80 75
199.61041259765625 -256.040802001953125 3788.076416015625 126 108 105
253.889678955078125 -667.7567138671875 4097.56640625 164 178 153
244.766616821289062 -466.89453125 3991.87890625 30 30 31
355.558746337890625 -1467.976806640625 4792.78662109375 173 124 107
271.577667236328125 -499.768402099609375 4083.15234375 78 79 80
-2094.08349609375 -581.71893310546875 3484.42724609375 164 197 205
-2088.8955078125 -645.37451171875 3508.479248046875 200 222 222
-2268.725830078125 -915.64501953125 3893.50244140625 255 254 255
-2028.881103515625 -520.97503662109375 3445.139404296875 198 192 157
-1991.605224609375 -528.91925048828125 3490.744140625 199 199 180
-2046.208740234375 -694.062744140625 3606.892333984375 152 182 195
-2062.780517578125 -806.92822265625 3665.73876953125 255 253 255
-2018.86767578125 -677.93743896484375 3608.519287109375 64 73 94
-2216.815673828125 -1095.7171630859375 4052.234375 152 135 89
-1962.3846435546875 -551.73260498046875 3554.85302734375 193 202 198
-1928.4967041015625 -458.633270263671875 3502.407470703125 57 56 59
-1752.045654296875 -411.10272216796875 3134.99462890625 68 74 80
-1913.116455078125 -664.65545654296875 3519.948974609375 38 40 57
-1856.9349365234375 -521.9521484375 3399.420654296875 164 158 129
-1762.5224609375 -540.11871337890625 3241.60009765625 202 219 211
-1934.5618896484375 -721.0863037109375 3628.678466796875 182 195 164
-2084.38671875 -1206.8087158203125 4064.4775390625 162 130 77
-2007.13916015625 -1216.7001953125 3904.909423828125 160 129 81
-2223.83544921875 -954.21990966796875 4490.12353515625 91 77 39
-2223.83544921875 -954.21990966796875 4490.12353515625 91 77 39
-2010.713134765625 -1131.8592529296875 4025.272705078125 164 136 89
-1720.78857421875 -467.089263916015625 3346.169189453125 175 239 245
-1704.9730224609375 -446.0543212890625 3346.033203125 47 51 59
-1616.07568359375 33.8623428344726562 3140.618408203125 55 91 85
-2132.7880859375 -1244.5574951171875 4372.6640625 147 119 67
-1759.21435546875 -623.5567626953125 3493.500244140625 50 39 20
-1654.4039306640625 -314.737213134765625 3265.125732421875 26 21 34
-2134.45556640625 -1571.606689453125 4436.234375 169 142 98
-1573.065185546875 -285.007537841796875 3090.012451171875 56 118 155
-1732.2293701171875 -733.9312744140625 3479.98974609375 161 132 88
-1719.22509765625 -600.48486328125 3464.39892578125 163 184 186
-1719.22509765625 -600.48486328125 3464.39892578125 163 184 186
-1665.380859375 -432.009033203125 3342.1787109375 61 163 216
-1721.6241455078125 -660.5513916015625 3481.425048828125 156 134 93
-1790.8916015625 -727.139404296875 3698.94970703125 151 122 74
-1626.18408203125 -316.056976318359375 3306.706298828125 17 20 21
-1626.18408203125 -316.056976318359375 3306.706298828125 17 20 21
-1881.6087646484375 -1174.3863525390625 3961.025146484375 155 125 73
-1532.9610595703125 -147.8983154296875 3096.037841796875 6 11 16
-1661.925537109375 -348.463714599609375 3419.705078125 113 133 133
-1545.136474609375 -232.519195556640625 3137.03125 50 112 148
-1935.172607421875 -1468.8458251953125 4144.5771484375 161 131 81
-1761.8160400390625 -586.14337158203125 3698.439453125 79 87 76
-1604.7454833984375 -422.450592041015625 3310.823486328125 49 178 233
-1826.009765625 -698.57281494140625 3905.779296875 68 65 56
-1559.5426025390625 -355.2281494140625 3233.854248046875 49 65 86
-1559.5426025390625 -355.2281494140625 3233.854248046875 49 65 86
-1676.78662109375 -611.41455078125 3550.146484375 176 129 59
-1654.095458984375 -507.039306640625 3498.90625 96 176 213
-1660.5638427734375 -541.5362548828125 3520.436767578125 165 126 59
-1501.9638671875 -176.07574462890625 3120.358154296875 7 17 2
-1501.9638671875 -176.07574462890625 3120.358154296875 7 17 2
-1518.609619140625 -202.848846435546875 3170.583984375 126 234 96
-1414.6192626953125 70.3979721069335938 2917.769287109375 24 29 20
-1655.087646484375 -702.31396484375 3550.76416015625 138 117 63
-1452.0340576171875 -30.4633102416992188 3032.826171875 73 126 122
-1596.67529296875 -242.748016357421875 3411.909423828125 16 26 15
-1616.7264404296875 -500.370208740234375 3483.0546875 33 33 39
-1688.129638671875 -790.92852783203125 3672.85888671875 119 97 61
-1531.477783203125 -648.59893798828125 3308.544921875 142 122 75
-1333.502685546875 -109.853836059570312 2783.2685546875 33 67 59
-1740.0916748046875 -841.4620361328125 3860.435791015625 155 128 78
-1665.21533203125 -761.74859619140625 3670.094970703125 148 124 80
-1387.42041015625 33.466644287109375 2932.510986328125 48 91 78
-1537.775146484375 -450.946624755859375 3341.2978515625 44 56 54
-1404.6649169921875 -54.0530967712402344 2985.009521484375 63 125 111
-1404.6649169921875 -54.0530967712402344 2985.009521484375 63 125 111
-1572.0294189453125 -499.556640625 3435.94482421875 149 159 162
